26.2812 -9.70512 -1.8979e-06
26.8437 -9.7116 2.63143e-07
26.2812 -9.23924 -3.69115e-06
26.8437 -9.24541 -1.25591e-07
27.4062 -9.71715 1.67605e-06
27.9686 -9.72177 -1.9807e-06
27.4062 -9.2507 1.70421e-06
27.9687 -9.25511 -1.70672e-07
26.2812 -8.77336 -3.50609e-06
26.8437 -8.77923 -2.61301e-07
26.2812 -8.30748 -3.43224e-06
26.8437 -8.31305 8.4296e-08
27.4062 -8.78426 7.48052e-07
27.9687 -8.78845 -5.7356e-07
27.4062 -8.31782 1.30447e-06
27.9687 -8.32179 -2.9855e-07
28.5312 -9.72548 7.986e-07
29.0937 -9.72825 3.8928e-06
28.5312 -9.25864 9.342e-07
29.0937 -9.26128 1.713e-07
29.6562 -9.7301 -3.7458e-07
30.2187 -9.73103 -1.63275e-06
29.6562 -9.26305 1.42711e-06
30.2187 -9.26393 -4.796e-08
28.5312 -8.7918 6.449e-07
29.0937 -8.79432 -3.63e-08
28.5312 -8.32497 6.343e-07
29.0937 -8.32736 -1.222e-07
29.6562 -8.79599 1.13248e-06
30.2187 -8.79683 -5.588e-08
29.6562 -8.32895 9.31379e-07
30.2187 -8.32974 -2.2075e-07
26.2812 -7.84161 -3.31607e-06
26.8437 -7.84687 -2.5921e-08
26.2812 -7.37574 -3.37444e-06
26.8437 -7.38069 7.2873e-08
27.4062 -7.85138 8.93593e-07
27.9687 -7.85514 -4.0968e-07
27.4062 -7.38494 1.02784e-06
27.9687 -7.38848 -3.3852e-07
26.2812 -6.90987 -3.3998e-06
26.8437 -6.91452 -3.824e-08
26.2812 -6.44401 -3.28779e-06
26.8437 -6.44835 -4.2968e-08
27.4062 -6.91851 1.0063e-06
27.9687 -6.92183 -4.355e-07
27.4062 -6.45208 1.0442e-06
27.9687 -6.45518 -5.715e-07
28.5312 -7.85815 5.108e-07
29.0937 -7.8604 -2.635e-07
28.5312 -7.39132 2.648e-07
29.0937 -7.39344 -2.613e-07
29.6562 -7.8619 9.06911e-07
30.2187 -7.86265 -1.5834e-07
29.6562 -7.39485 8.35201e-07
30.2187 -7.39556 -1.9267e-07
28.5312 -6.92449 4.754e-07
29.0937 -6.92648 -3.805e-07
28.5312 -6.45767 6.561e-07
29.0937 -6.45953 -4.463e-07
29.6562 -6.92781 7.96963e-07
30.2187 -6.92848 -2.2499e-07
29.6562 -6.46077 7.9528e-07
30.2187 -6.46139 -2.328e-07
30.7813 -9.73103 -1.41202e-07
31.3438 -9.7301 4.856e-08
30.7813 -9.26393 -6.2324e-08
31.3438 -9.26305 -1.12172e-06
31.9063 -9.72825 -4.785e-06
32.4688 -9.72548 -1.1399e-06
31.9063 -9.26128 -2.19e-08
32.4688 -9.25864 -1.7022e-06
30.7813 -8.79683 4.40489e-07
31.3438 -8.79599 -1.11013e-06
30.7813 -8.32974 2.31239e-07
31.3438 -8.32895 -8.5281e-07
31.9063 -8.79432 2.091e-07
32.4688 -8.7918 -3.07e-07
31.9063 -8.32736 1.79e-07
32.4688 -8.32497 -7.804e-07
33.0314 -9.72177 3.45857e-06
33.5938 -9.71715 -1.68839e-07
33.0313 -9.25511 3.855e-08
33.5938 -9.2507 -1.91737e-06
34.1563 -9.7116 2.16627e-06
34.7188 -9.70512 3.82351e-06
34.1563 -9.24541 4.1092e-07
34.7188 -9.23924 5.30098e-06
33.0313 -8.78845 5.5297e-07
33.5938 -8.78426 -1.39897e-06
33.0313 -8.32179 5.5044e-07
33.5938 -8.31782 -1.20775e-06
34.1563 -8.77923 -4.22952e-07
34.7188 -8.77336 4.26102e-06
34.1563 -8.31305 3.3593e-07
34.7188 -8.30748 4.65144e-06
30.7813 -7.86265 2.85029e-07
31.3438 -7.8619 -9.2904e-07
30.7813 -7.39556 2.57723e-07
31.3438 -7.39485 -8.9823e-07
31.9063 -7.8604 3.718e-07
32.4688 -7.85815 -4.942e-07
31.9063 -7.39344 2.565e-07
32.4688 -7.39132 -4.91e-07
30.7813 -6.92848 3.1937e-07
31.3438 -6.92781 -8.58838e-07
30.7813 -6.46139 2.2975e-07
31.3438 -6.46077 -7.7965e-07
31.9063 -6.92648 3.583e-07
32.4688 -6.92449 -5.868e-07
31.9063 -6.45953 4.608e-07
32.4688 -6.45767 -7.253e-07
33.0313 -7.85514 5.6515e-07
33.5938 -7.85138 -1.27339e-06
33.0313 -7.38848 4.6578e-07
33.5938 -7.38494 -1.15657e-06
34.1563 -7.84687 -7.494e-08
34.7188 -7.84161 4.26892e-06
34.1563 -7.38069 6.181e-08
34.7188 -7.37574 4.3915e-06
33.0313 -6.92183 5.7332e-07
33.5938 -6.91851 -1.20558e-06
33.0313 -6.45518 6.7516e-07
33.5938 -6.45208 -1.23825e-06
34.1563 -6.91452 3.767e-08
34.7188 -6.90987 4.26101e-06
34.1563 -6.44835 1.689e-07
34.7188 -6.44401 4.15482e-06
26.2812 -5.97814 -3.20814e-06
26.8437 -5.98218 -8.1679e-08
26.2812 -5.51228 -3.27856e-06
26.8437 -5.51601 -1.01181e-07
27.4062 -5.98564 1.05736e-06
27.9687 -5.98853 -6.15104e-07
27.4062 -5.5192 1.05037e-06
27.9687 -5.52186 -5.2518e-07
26.2812 -5.04642 -3.21851e-06
26.8437 -5.04983 -4.9394e-08
26.2812 -4.58056 -3.1659e-06
26.8437 -4.58366 -9.3345e-08
27.4062 -5.05276 1.03368e-06
27.9687 -5.0552 -5.1248e-07
27.4062 -4.58632 1.03455e-06
27.9687 -4.58853 -5.34708e-07
28.5312 -5.99083 6.512e-07
29.0937 -5.99257 -5.118e-07
28.5312 -5.52399 5.574e-07
29.0937 -5.52559 -3.665e-07
29.6562 -5.99372 7.14076e-07
30.2187 -5.9943 -1.9577e-07
29.6562 -5.52665 6.71807e-07
30.2187 -5.52718 -2.3976e-07
28.5312 -5.05715 6.093e-07
29.0937 -5.05861 -3.691e-07
28.5312 -4.5903 6.632e-07
29.0937 -4.59163 -4.244e-07
29.6562 -5.05958 7.11168e-07
30.2187 -5.06007 -2.3171e-07
29.6562 -4.59252 7.2184e-07
30.2187 -4.59296 -2.0856e-07
26.2812 -4.11471 -3.05503e-06
26.8437 -4.11749 -1.50307e-07
26.2812 -3.64885 -3.0713e-06
26.8437 -3.65132 -1.14051e-07
27.4062 -4.11988 1.04154e-06
27.9687 -4.12187 -5.42007e-07
27.4062 -3.65344 1.03038e-06
27.9687 -3.65521 -6.23752e-07
26.2812 -3.183 -2.86383e-06
26.8437 -3.18516 -1.96511e-07
26.2812 -2.71715 -2.39383e-06
26.8437 -2.71899 -1.28326e-07
27.4062 -3.18701 1.05705e-06
27.9687 -3.18855 -6.4788e-07
27.4062 -2.72057 9.11502e-07
27.9687 -2.72189 -7.0427e-07
28.5312 -4.12346 6.595e-07
29.0937 -4.12466 -5.395e-07
28.5312 -3.65662 6.317e-07
29.0937 -3.65768 -6.41e-07
29.6562 -4.12545 7.526e-07
30.2187 -4.12585 -1.5627e-07
29.6562 -3.65839 7.9138e-07
30.2187 -3.65874 -2.0477e-07
28.5312 -3.18978 7.108e-07
29.0937 -3.19071 -8.557e-07
28.5312 -2.72295 7.594e-07
29.0937 -2.72374 -1.1126e-06
29.6562 -3.19133 9.1084e-07
30.2187 -3.19163 -6.886e-08
29.6562 -2.72426 1.05769e-06
30.2187 -2.72453 -2.8181e-07
30.7813 -5.9943 1.468e-07
31.3438 -5.99372 -7.8299e-07
30.7813 -5.52718 2.5319e-07
31.3438 -5.52665 -7.4635e-07
31.9063 -5.99257 4.713e-07
32.4688 -5.99083 -7.077e-07
31.9063 -5.52559 3.491e-07
32.4688 -5.52399 -4.545e-07
30.7813 -5.06007 3.3363e-07
31.3438 -5.05958 -7.62354e-07
30.7813 -4.59296 1.9731e-07
31.3438 -4.59252 -6.7633e-07
31.9063 -5.05861 4.069e-07
32.4688 -5.05715 -6.751e-07
31.9063 -4.59163 5.222e-07
32.4688 -4.5903 -6.735e-07
33.0313 -5.98853 6.4789e-07
33.5938 -5.98564 -1.22489e-06
33.0313 -5.52186 5.7236e-07
33.5938 -5.5192 -1.25114e-06
34.1563 -5.98218 9.69e-08
34.7188 -5.97814 4.17301e-06
34.1563 -5.51601 1.147e-07
34.7188 -5.51228 4.25284e-06
33.0313 -5.0552 6.0491e-07
33.5938 -5.05276 -1.29016e-06
33.0313 -4.58853 6.5561e-07
33.5938 -4.58632 -1.20446e-06
34.1563 -5.04983 7.827e-08
34.7188 -5.04642 4.18729e-06
34.1563 -4.58366 1.18082e-07
34.7188 -4.58056 3.97212e-06
30.7813 -4.12585 1.9964e-07
31.3438 -4.12545 -8.1365e-07
30.7813 -3.65874 1.9864e-07
31.3438 -3.65839 -7.9708e-07
31.9063 -4.12466 6.86e-07
32.4688 -4.12346 -7.315e-07
31.9063 -3.65768 7.021e-07
32.4688 -3.65662 -6.947e-07
30.7813 -3.19163 1.8129e-07
31.3438 -3.19133 -1.01556e-06
30.7813 -2.72453 2.8929e-07
31.3438 -2.72426 -1.1396e-06
31.9063 -3.19071 9.203e-07
32.4688 -3.18978 -8.476e-07
31.9063 -2.72374 1.2057e-06
32.4688 -2.72295 -9.438e-07
33.0313 -4.12187 6.7569e-07
33.5938 -4.11988 -1.24575e-06
33.0313 -3.65521 6.67092e-07
33.5938 -3.65344 -1.26973e-06
34.1563 -4.11749 1.60891e-07
34.7188 -4.11471 3.96362e-06
34.1563 -3.65132 2.07903e-07
34.7188 -3.64885 3.89596e-06
33.0313 -3.18855 6.75396e-07
33.5938 -3.18701 -1.20871e-06
33.0313 -2.72189 7.58081e-07
33.5938 -2.72057 -1.12213e-06
34.1563 -3.18516 2.65947e-07
34.7188 -3.183 3.63336e-06
34.1563 -2.71899 3.03319e-07
34.7188 -2.71715 3.05267e-06
26.2812 -2.25132 -2.26708e-06
26.8437 -2.25285 -2.94655e-07
26.2812 -1.78552 -2.72198e-06
26.8437 -1.78674 -1.66232e-07
27.4062 -2.25416 1.00044e-06
27.9687 -2.25526 -6.35328e-07
27.4062 -1.78778 9.7054e-07
27.9687 -1.78864 -6.08345e-07
26.2812 -1.31973 -2.82739e-06
26.8437 -1.32062 -1.74237e-07
26.2812 -0.853928 -2.87955e-06
26.8437 -0.854509 -1.01174e-07
27.4062 -1.32139 1.00083e-06
27.9687 -1.32203 -5.45352e-07
27.4062 -0.855006 9.86119e-07
27.9687 -0.855421 -5.68769e-07
28.5312 -2.25613 7.074e-07
29.0937 -2.25679 -1.0606e-06
28.5312 -1.78934 6.889e-07
29.0937 -1.78986 -8.19e-07
29.6562 -2.25722 1.07535e-06
30.2187 -2.25744 -4.2033e-07
29.6562 -1.7902 9.2266e-07
30.2187 -1.79038 -1.6884e-07
28.5312 -1.32254 6.008e-07
29.0937 -1.32293 -6.765e-07
28.5312 -0.855752 6.93e-07
29.0937 -0.856001 -6.305e-07
29.6562 -1.32319 8.4108e-07
30.2187 -1.32331 -1.3921e-07
29.6562 -0.856167 7.4379e-07
30.2187 -0.856249 -1.574e-07
26.2812 -0.388132 -2.81882e-06
26.8437 -0.388396 -1.43801e-07
26.2812 0.0776645 -2.90788e-06
26.8437 0.0777176 -3.0921e-08
27.4062 -0.388622 1.03586e-06
27.9687 -0.38881 -4.70501e-07
27.4062 0.0777632 9.94332e-07
27.9687 0.0778012 -5.49766e-07
26.2812 0.543461 -2.91294e-06
26.8437 0.543831 -8.0224e-08
26.2812 1.00926 -2.78256e-06
26.8437 1.00994 -9.508e-08
27.4062 0.544148 1.00021e-06
27.9687 0.544412 -5.2432e-07
27.4062 1.01053 9.8581e-07
27.9687 1.01102 -5.36348e-07
28.5312 -0.38896 6.208e-07
29.0937 -0.389073 -5.042e-07
28.5312 0.0778317 6.192e-07
29.0937 0.0778547 -3.792e-07
29.6562 -0.389148 6.9742e-07
30.2187 -0.389186 -2.1305e-07
29.6562 0.0778701 7.22043e-07
30.2187 0.077878 -2.6709e-07
28.5312 0.544624 5.328e-07
29.0937 0.544783 -4.537e-07
28.5312 1.01142 5.951e-07
29.0937 1.01171 -4.913e-07
29.6562 0.544889 6.99373e-07
30.2187 0.544942 -2.7696e-07
29.6562 1.01191 7.5526e-07
30.2187 1.01201 -2.1627e-07
30.7813 -2.25744 2.6218e-07
31.3438 -2.25722 -1.12861e-06
30.7813 -1.79038 2.5353e-07
31.3438 -1.7902 -1.0117e-06
31.9063 -2.25679 1.2183e-06
32.4688 -2.25613 -1.0414e-06
31.9063 -1.78986 9.099e-07
32.4688 -1.78934 -6.539e-07
30.7813 -1.32331 2.1288e-07
31.3438 -1.32319 -8.3754e-07
30.7813 -0.856249 2.1927e-07
31.3438 -0.856167 -8.8189e-07
31.9063 -1.32293 7.209e-07
32.4688 -1.32254 -7.697e-07
31.9063 -0.856001 6.398e-07
32.4688 -0.855752 -6.503e-07
33.0313 -2.25526 7.68177e-07
33.5938 -2.25416 -1.12228e-06
33.0313 -1.78864 6.72134e-07
33.5938 -1.78778 -1.23511e-06
34.1563 -2.25285 2.68038e-07
34.7188 -2.25132 3.00184e-06
34.1563 -1.78674 2.73174e-07
34.7188 -1.78552 3.54293e-06
33.0313 -1.32203 7.57183e-07
33.5938 -1.32139 -1.21405e-06
33.0313 -0.855421 6.14648e-07
33.5938 -0.855006 -1.21746e-06
34.1563 -1.32062 1.46263e-07
34.7188 -1.31973 3.72311e-06
34.1563 -0.854509 1.38e-07
34.7188 -0.853928 3.68051e-06
30.7813 -0.389186 2.1669e-07
31.3438 -0.389148 -8.0954e-07
30.7813 0.077878 2.8809e-07
31.3438 0.0778701 -8.20092e-07
31.9063 -0.389073 5.006e-07
32.4688 -0.38896 -6.372e-07
31.9063 0.0778547 3.713e-07
32.4688 0.0778317 -6.42e-07
30.7813 0.544942 2.7653e-07
31.3438 0.544889 -8.304e-07
30.7813 1.01201 2.0888e-07
31.3438 1.01191 -8.677e-07
31.9063 0.544783 4.457e-07
32.4688 0.544624 -7.049e-07
31.9063 1.01171 5.936e-07
32.4688 1.01142 -7.179e-07
33.0313 -0.38881 6.0614e-07
33.5938 -0.388622 -1.21841e-06
33.0313 0.0778012 5.5762e-07
33.5938 0.0777632 -1.21137e-06
34.1563 -0.388396 1.90336e-07
34.7188 -0.388132 3.63875e-06
34.1563 0.0777176 7.7066e-08
34.7188 0.0776645 3.73335e-06
33.0313 0.544412 5.2027e-07
33.5938 0.544148 -1.10653e-06
33.0313 1.01102 4.961e-07
33.5938 1.01053 -1.16031e-06
34.1563 0.543831 1.43858e-07
34.7188 0.543461 3.69096e-06
34.1563 1.00994 1.59173e-07
34.7188 1.00926 3.59317e-06
26.2812 1.47505 -2.81572e-06
26.8437 1.47606 -1.28153e-07
26.2812 1.94085 -2.96004e-06
26.8437 1.94217 -7.1311e-08
27.4062 1.47692 1.02761e-06
27.9687 1.47763 -5.11635e-07
27.4062 1.9433 9.81865e-07
27.9687 1.94424 -5.41704e-07
26.2812 2.40665 -2.98207e-06
26.8437 2.40828 -4.9859e-08
26.2812 2.87245 -2.90562e-06
26.8437 2.8744 -1.18524e-07
27.4062 2.40968 1.00988e-06
27.9687 2.41085 -4.54564e-07
27.4062 2.87607 9.81739e-07
27.9687 2.87746 -5.20026e-07
28.5312 1.47821 6.184e-07
29.0937 1.47864 -4.964e-07
28.5312 1.94499 6.876e-07
29.0937 1.94556 -3.826e-07
29.6562 1.47892 7.7312e-07
30.2187 1.47907 -2.0662e-07
29.6562 1.94594 7.84e-07
30.2187 1.94612 -2.8831e-07
28.5312 2.41178 6.868e-07
29.0937 2.41248 -2.493e-07
28.5312 2.87857 6.93e-07
29.0937 2.87941 -3.312e-07
29.6562 2.41295 8.30999e-07
30.2187 2.41318 -3.1136e-07
29.6562 2.87996 8.9837e-07
30.2187 2.88024 -1.9032e-07
26.2812 3.33825 -3.07017e-06
26.8437 3.34051 -7.289e-08
26.2812 3.80405 -3.02108e-06
26.8437 3.80663 -1.3852e-07
27.4062 3.34245 1.16586e-06
27.9687 3.34407 -4.24919e-07
27.4062 3.80884 8.32161e-07
27.9687 3.81068 -5.98457e-07
26.2812 4.26985 -3.2648e-06
26.8437 4.27274 -3.01062e-07
26.2812 4.73566 -1.5579e-06
26.8437 4.73886 -1.78763e-07
27.4062 4.27522 1.51354e-06
27.9687 4.27729 -2.19653e-07
27.4062 4.74161 1.07309e-06
27.9687 4.7439 -1.75201e-06
28.5312 3.34536 8.476e-07
29.0937 3.34633 -2.159e-07
28.5312 3.81215 7.427e-07
29.0937 3.81326 -2.634e-07
29.6562 3.34698 9.53158e-07
30.2187 3.3473 -1.8705e-07
29.6562 3.81399 1.17198e-06
30.2187 3.81436 -2.363e-07
28.5312 4.27894 1.2439e-06
29.0937 4.28018 -1.309e-07
28.5312 4.74574 2.944e-07
29.0937 4.74711 3.8921e-06
29.6562 4.28101 1.4294e-06
30.2187 4.28142 -1.4044e-07
29.6562 4.74803 -7.838e-08
30.2187 4.74849 -1.52835e-06
30.7813 1.47907 2.9709e-07
31.3438 1.47892 -8.3306e-07
30.7813 1.94612 2.8752e-07
31.3438 1.94594 -8.01652e-07
31.9063 1.47864 5.336e-07
32.4688 1.47821 -6.846e-07
31.9063 1.94556 3.855e-07
32.4688 1.94499 -6.157e-07
30.7813 2.41318 3.0763e-07
31.3438 2.41295 -7.9185e-07
30.7813 2.88024 2.7313e-07
31.3438 2.87996 -9.2072e-07
31.9063 2.41248 2.747e-07
32.4688 2.41178 -7.091e-07
31.9063 2.87941 3.867e-07
32.4688 2.87857 -7.225e-07
33.0313 1.47763 6.1207e-07
33.5938 1.47692 -1.17905e-06
33.0313 1.94424 4.9197e-07
33.5938 1.9433 -1.14904e-06
34.1563 1.47606 2.06404e-07
34.7188 1.47505 3.61254e-06
34.1563 1.94217 9.0257e-08
34.7188 1.94085 3.71385e-06
33.0313 2.41085 5.6771e-07
33.5938 2.40968 -1.22517e-06
33.0313 2.87746 5.5989e-07
33.5938 2.87607 -1.2863e-06
34.1563 2.40828 8.7597e-08
34.7188 2.40665 3.86091e-06
34.1563 2.8744 8.225e-09
34.7188 2.87245 3.816e-06
30.7813 3.3473 2.618e-07
31.3438 3.34698 -9.6045e-07
30.7813 3.81436 3.6206e-07
31.3438 3.81399 -1.23135e-06
31.9063 3.34633 2.253e-07
32.4688 3.34536 -8.697e-07
31.9063 3.81326 3.534e-07
32.4688 3.81215 -6.319e-07
30.7813 4.28142 2.403e-08
31.3438 4.28101 -1.32789e-06
30.7813 4.74849 8.9305e-07
31.3438 4.74803 1.4015e-07
31.9063 4.28018 3.001e-07
32.4688 4.27894 -1.6404e-06
31.9063 4.74711 -4.3877e-06
32.4688 4.74574 -2.625e-07
33.0313 3.34407 5.0621e-07
33.5938 3.34245 -1.21807e-06
33.0313 3.81068 6.30531e-07
33.5938 3.80884 -1.30752e-06
34.1563 3.34051 3.14346e-07
34.7188 3.33825 4.04936e-06
34.1563 3.80663 -1.50746e-07
34.7188 3.80405 3.88437e-06
33.0313 4.27729 1.45872e-07
33.5938 4.27522 -1.70319e-06
33.0313 4.7439 2.71074e-06
33.5938 4.74161 -3.39254e-07
34.1563 4.27274 5.16646e-07
34.7188 4.26985 4.39299e-06
34.1563 4.73886 1.40468e-06
34.7188 4.73566 2.58524e-06
