26.2812 -9.70512 5.45402e-06
26.8437 -9.7116 2.35912e-06
26.2812 -9.23924 8.05518e-06
26.8437 -9.24541 5.7308e-07
27.4062 -9.71715 -1.08768e-06
27.9686 -9.72177 4.94466e-06
27.4062 -9.2507 -3.18258e-06
27.9687 -9.25511 9.581e-08
26.2812 -8.77336 6.8716e-06
26.8437 -8.77923 -3.9376e-07
26.2812 -8.30748 7.23512e-06
26.8437 -8.31305 3.4001e-07
27.4062 -8.78426 -2.02154e-06
27.9687 -8.78845 8.7063e-07
27.4062 -8.31782 -2.1384e-06
27.9687 -8.32179 6.1831e-07
28.5312 -9.72548 -1.7931e-06
29.0937 -9.72825 -7.643e-06
28.5312 -9.25864 -2.4072e-06
29.0937 -9.26128 -7.35e-08
29.6562 -9.7301 2.7741e-07
30.2187 -9.73103 7.9608e-07
29.6562 -9.26305 -2.09027e-06
30.2187 -9.26393 -4.971e-08
28.5312 -8.7918 -7.068e-07
29.0937 -8.79432 2.729e-07
28.5312 -8.32497 -1.3823e-06
29.0937 -8.32736 2.175e-07
29.6562 -8.79599 -1.92946e-06
30.2187 -8.79683 5.0663e-07
29.6562 -8.32895 -1.42361e-06
30.2187 -8.32974 3.8866e-07
26.2812 -7.84161 6.72907e-06
26.8437 -7.84687 -2.6963e-07
26.2812 -7.37574 6.86408e-06
26.8437 -7.38069 -5.44e-09
27.4062 -7.85138 -1.94978e-06
27.9687 -7.85514 6.7174e-07
27.4062 -7.38494 -1.89491e-06
27.9687 -7.38848 6.535e-07
26.2812 -6.90987 6.74098e-06
26.8437 -6.91452 3.78e-09
26.2812 -6.44401 6.56083e-06
26.8437 -6.44835 1.1323e-07
27.4062 -6.91851 -2.02228e-06
27.9687 -6.92183 7.8958e-07
27.4062 -6.45208 -1.97947e-06
27.9687 -6.45518 1.05868e-06
28.5312 -7.85815 -8.712e-07
29.0937 -7.8604 6.196e-07
28.5312 -7.39132 -5.245e-07
29.0937 -7.39344 4.728e-07
29.6562 -7.8619 -1.53588e-06
30.2187 -7.86265 4.1851e-07
29.6562 -7.39485 -1.4178e-06
30.2187 -7.39556 3.4708e-07
28.5312 -6.92449 -8.679e-07
29.0937 -6.92648 6.48e-07
28.5312 -6.45767 -1.2145e-06
29.0937 -6.45953 7.913e-07
29.6562 -6.92781 -1.42873e-06
30.2187 -6.92848 4.3292e-07
29.6562 -6.46077 -1.3674e-06
30.2187 -6.46139 3.9185e-07
30.7813 -9.73103 -1.73068e-06
31.3438 -9.7301 -4.5078e-07
30.7813 -9.26393 -3.171e-08
31.3438 -9.26305 2.20045e-06
31.9063 -9.72825 7.117e-06
32.4688 -9.72548 1.5142e-06
31.9063 -9.26128 2.357e-07
32.4688 -9.25864 2.0411e-06
30.7813 -8.79683 -3.5443e-07
31.3438 -8.79599 1.89225e-06
30.7813 -8.32974 -3.8973e-07
31.3438 -8.32895 1.60242e-06
31.9063 -8.79432 -1.508e-07
32.4688 -8.7918 8.792e-07
31.9063 -8.32736 -2.944e-07
32.4688 -8.32497 1.0792e-06
33.0314 -9.72177 -4.2337e-06
33.5938 -9.71715 2.02301e-06
33.0313 -9.25511 -2.7974e-07
33.5938 -9.2507 2.98071e-06
34.1563 -9.7116 -8.62877e-07
34.7188 -9.70512 -4.244e-06
34.1563 -9.24541 -3.6502e-07
34.7188 -9.23924 -7.19109e-06
33.0313 -8.78845 -9.5212e-07
33.5938 -8.78426 1.59563e-06
33.0313 -8.32179 -8.0261e-07
33.5938 -8.31782 2.12741e-06
34.1563 -8.77923 -8.977e-08
34.7188 -8.77336 -6.32893e-06
34.1563 -8.31305 -6.313e-08
34.7188 -8.30748 -6.50048e-06
30.7813 -7.86265 -3.5065e-07
31.3438 -7.8619 1.58953e-06
30.7813 -7.39556 -4.0843e-07
31.3438 -7.39485 1.51314e-06
31.9063 -7.8604 -4.757e-07
32.4688 -7.85815 7.99e-07
31.9063 -7.39344 -4.232e-07
32.4688 -7.39132 7.084e-07
30.7813 -6.92848 -4.8543e-07
31.3438 -6.92781 1.40768e-06
30.7813 -6.46139 -3.9097e-07
31.3438 -6.46077 1.32076e-06
31.9063 -6.92648 -6.242e-07
32.4688 -6.92449 9.647e-07
31.9063 -6.45953 -7.226e-07
32.4688 -6.45767 1.1345e-06
33.0313 -7.85514 -9.4161e-07
33.5938 -7.85138 1.74964e-06
33.0313 -7.38848 -6.4206e-07
33.5938 -7.38494 1.78839e-06
34.1563 -7.84687 -1.4946e-07
34.7188 -7.84161 -6.14708e-06
34.1563 -7.38069 3.431e-08
34.7188 -7.37574 -6.31355e-06
33.0313 -6.92183 -9.3567e-07
33.5938 -6.91851 1.79959e-06
33.0313 -6.45518 -1.03095e-06
33.5938 -6.45208 1.87203e-06
34.1563 -6.91452 -1.3742e-07
34.7188 -6.90987 -6.26584e-06
34.1563 -6.44835 -2.11e-07
34.7188 -6.44401 -6.07327e-06
26.2812 -5.97814 6.55807e-06
26.8437 -5.98218 1.5848e-07
26.2812 -5.51228 6.68382e-06
26.8437 -5.51601 1.8698e-07
27.4062 -5.98564 -2.04785e-06
27.9687 -5.98853 1.13966e-06
27.4062 -5.5192 -2.03099e-06
27.9687 -5.52186 9.8565e-07
26.2812 -5.04642 6.50106e-06
26.8437 -5.04983 9.187e-08
26.2812 -4.58056 6.32851e-06
26.8437 -4.58366 1.8454e-07
27.4062 -5.05276 -1.99784e-06
27.9687 -5.0552 9.7141e-07
27.4062 -4.58632 -1.98414e-06
27.9687 -4.58853 9.8958e-07
28.5312 -5.99083 -1.1858e-06
29.0937 -5.99257 9.07e-07
28.5312 -5.52399 -1.0396e-06
29.0937 -5.52559 6.482e-07
29.6562 -5.99372 -1.25634e-06
30.2187 -5.9943 3.6412e-07
29.6562 -5.52665 -1.22027e-06
30.2187 -5.52718 3.9202e-07
28.5312 -5.05715 -1.1475e-06
29.0937 -5.05861 6.648e-07
28.5312 -4.5903 -1.2243e-06
29.0937 -4.59163 7.701e-07
29.6562 -5.05958 -1.22575e-06
30.2187 -5.06007 4.0582e-07
29.6562 -4.59252 -1.25417e-06
30.2187 -4.59296 3.4738e-07
26.2812 -4.11471 6.15241e-06
26.8437 -4.11749 3.0206e-07
26.2812 -3.64885 6.13565e-06
26.8437 -3.65132 2.3387e-07
27.4062 -4.11988 -2.00855e-06
27.9687 -4.12187 1.03252e-06
27.4062 -3.65344 -1.99942e-06
27.9687 -3.65521 1.16064e-06
26.2812 -3.183 5.74926e-06
26.8437 -3.18516 3.8019e-07
26.2812 -2.71715 4.82862e-06
26.8437 -2.71899 2.51421e-07
27.4062 -3.18701 -2.03975e-06
27.9687 -3.18855 1.22932e-06
27.4062 -2.72057 -1.72902e-06
27.9687 -2.72189 1.31777e-06
28.5312 -4.12346 -1.2189e-06
29.0937 -4.12466 9.814e-07
28.5312 -3.65662 -1.1678e-06
29.0937 -3.65768 1.1708e-06
29.6562 -4.12545 -1.31522e-06
30.2187 -4.12585 2.7407e-07
29.6562 -3.65839 -1.38627e-06
30.2187 -3.65874 3.4965e-07
28.5312 -3.18978 -1.3046e-06
29.0937 -3.19071 1.4936e-06
28.5312 -2.72295 -1.3738e-06
29.0937 -2.72374 1.9715e-06
29.6562 -3.19133 -1.6267e-06
30.2187 -3.19163 7.092e-08
29.6562 -2.72426 -1.85432e-06
30.2187 -2.72453 4.7066e-07
30.7813 -5.9943 -2.2615e-07
31.3438 -5.99372 1.27629e-06
30.7813 -5.52718 -4.3075e-07
31.3438 -5.52665 1.1921e-06
31.9063 -5.99257 -7.665e-07
32.4688 -5.99083 1.0902e-06
31.9063 -5.52559 -5.564e-07
32.4688 -5.52399 7.316e-07
30.7813 -5.06007 -5.1737e-07
31.3438 -5.05958 1.27758e-06
30.7813 -4.59296 -3.319e-07
31.3438 -4.59252 1.11682e-06
31.9063 -5.05861 -6.479e-07
32.4688 -5.05715 1.0755e-06
31.9063 -4.59163 -8.304e-07
32.4688 -4.5903 1.0416e-06
33.0313 -5.98853 -1.00051e-06
33.5938 -5.98564 1.82822e-06
33.0313 -5.52186 -8.9632e-07
33.5938 -5.5192 1.88055e-06
34.1563 -5.98218 -1.6932e-07
34.7188 -5.97814 -5.9789e-06
34.1563 -5.51601 -1.5251e-07
34.7188 -5.51228 -6.10174e-06
33.0313 -5.0552 -9.2532e-07
33.5938 -5.05276 1.95121e-06
33.0313 -4.58853 -9.9782e-07
33.5938 -4.58632 1.80519e-06
34.1563 -5.04983 -1.2873e-07
34.7188 -5.04642 -6.05383e-06
34.1563 -4.58366 -1.6891e-07
34.7188 -4.58056 -5.79445e-06
30.7813 -4.12585 -3.2983e-07
31.3438 -4.12545 1.3318e-06
30.7813 -3.65874 -3.3849e-07
31.3438 -3.65839 1.31925e-06
31.9063 -4.12466 -1.0992e-06
32.4688 -4.12346 1.1435e-06
31.9063 -3.65768 -1.1009e-06
32.4688 -3.65662 1.0937e-06
30.7813 -3.19163 -3.4423e-07
31.3438 -3.19133 1.64696e-06
30.7813 -2.72453 -4.9916e-07
31.3438 -2.72426 1.86686e-06
31.9063 -3.19071 -1.5216e-06
32.4688 -3.18978 1.3383e-06
31.9063 -2.72374 -1.9705e-06
32.4688 -2.72295 1.5008e-06
33.0313 -4.12187 -1.04089e-06
33.5938 -4.11988 1.88459e-06
33.0313 -3.65521 -1.03522e-06
33.5938 -3.65344 1.9179e-06
34.1563 -4.11749 -2.2588e-07
34.7188 -4.11471 -5.74837e-06
34.1563 -3.65132 -3.1489e-07
34.7188 -3.64885 -5.68595e-06
33.0313 -3.18855 -1.04369e-06
33.5938 -3.18701 1.82776e-06
33.0313 -2.72189 -1.16897e-06
33.5938 -2.72057 1.69709e-06
34.1563 -3.18516 -4.07106e-07
34.7188 -3.183 -5.28153e-06
34.1563 -2.71899 -4.40004e-07
34.7188 -2.71715 -4.41847e-06
26.2812 -2.25132 4.60673e-06
26.8437 -2.25285 5.70407e-07
26.2812 -1.78552 5.53975e-06
26.8437 -1.78674 3.3647e-07
27.4062 -2.25416 -1.93939e-06
27.9687 -2.25526 1.18612e-06
27.4062 -1.78778 -1.88393e-06
27.9687 -1.78864 1.16111e-06
26.2812 -1.31973 5.75062e-06
26.8437 -1.32062 3.4671e-07
26.2812 -0.853928 5.83722e-06
26.8437 -0.854509 1.9842e-07
27.4062 -1.32139 -1.92989e-06
27.9687 -1.32203 1.0328e-06
27.4062 -0.855006 -1.90291e-06
27.9687 -0.855421 1.06478e-06
28.5312 -2.25613 -1.3137e-06
29.0937 -2.25679 1.9289e-06
28.5312 -1.78934 -1.2822e-06
29.0937 -1.78986 1.4899e-06
29.6562 -2.25722 -1.90492e-06
30.2187 -2.25744 7.2933e-07
29.6562 -1.7902 -1.60482e-06
30.2187 -1.79038 3.0042e-07
28.5312 -1.32254 -1.1049e-06
29.0937 -1.32293 1.2082e-06
28.5312 -0.855752 -1.2733e-06
29.0937 -0.856001 1.1316e-06
29.6562 -1.32319 -1.48731e-06
30.2187 -1.32331 2.3153e-07
29.6562 -0.856167 -1.30985e-06
30.2187 -0.856249 2.6604e-07
26.2812 -0.388132 5.71426e-06
26.8437 -0.388396 2.8173e-07
26.2812 0.0776645 5.88835e-06
26.8437 0.0777176 6.073e-08
27.4062 -0.388622 -1.99825e-06
27.9687 -0.38881 8.8536e-07
27.4062 0.0777632 -1.91724e-06
27.9687 0.0778012 1.03498e-06
26.2812 0.543461 5.90345e-06
26.8437 0.543831 1.6008e-07
26.2812 1.00926 5.64585e-06
26.8437 1.00994 1.8568e-07
27.4062 0.544148 -1.93115e-06
27.9687 0.544412 9.9003e-07
27.4062 1.01053 -1.90717e-06
27.9687 1.01102 1.01119e-06
28.5312 -0.38896 -1.1408e-06
29.0937 -0.389073 9.049e-07
28.5312 0.0778317 -1.1388e-06
29.0937 0.0778547 6.816e-07
29.6562 -0.389148 -1.22591e-06
30.2187 -0.389186 3.6514e-07
29.6562 0.0778701 -1.26751e-06
30.2187 0.077878 4.5911e-07
28.5312 0.544624 -9.806e-07
29.0937 0.544783 8.155e-07
28.5312 1.01142 -1.0972e-06
29.0937 1.01171 8.867e-07
29.6562 0.544889 -1.22917e-06
30.2187 0.544942 4.7753e-07
29.6562 1.01191 -1.32255e-06
30.2187 1.01201 3.7818e-07
30.7813 -2.25744 -4.3542e-07
31.3438 -2.25722 1.84516e-06
30.7813 -1.79038 -4.0702e-07
31.3438 -1.7902 1.67357e-06
31.9063 -2.25679 -1.927e-06
32.4688 -2.25613 1.6263e-06
31.9063 -1.78986 -1.437e-06
32.4688 -1.78934 1.022e-06
30.7813 -1.32331 -3.6114e-07
31.3438 -1.32319 1.36909e-06
30.7813 -0.856249 -3.7323e-07
31.3438 -0.856167 1.44546e-06
31.9063 -1.32293 -1.1629e-06
32.4688 -1.32254 1.2053e-06
31.9063 -0.856001 -1.0265e-06
32.4688 -0.855752 1.0273e-06
33.0313 -2.25526 -1.18779e-06
33.5938 -2.25416 1.68225e-06
33.0313 -1.78864 -1.02571e-06
33.5938 -1.78778 1.8496e-06
34.1563 -2.25285 -4.02297e-07
34.7188 -2.25132 -4.3198e-06
34.1563 -1.78674 -3.93187e-07
34.7188 -1.78552 -5.09281e-06
33.0313 -1.32203 -1.15851e-06
33.5938 -1.32139 1.82223e-06
33.0313 -0.855421 -9.5164e-07
33.5938 -0.855006 1.83675e-06
34.1563 -1.32062 -2.1581e-07
34.7188 -1.31973 -5.35235e-06
34.1563 -0.854509 -2.0738e-07
34.7188 -0.853928 -5.30754e-06
30.7813 -0.389186 -3.6389e-07
31.3438 -0.389148 1.32868e-06
30.7813 0.077878 -4.8318e-07
31.3438 0.0778701 1.3471e-06
31.9063 -0.389073 -8.046e-07
32.4688 -0.38896 1.0014e-06
31.9063 0.0778547 -5.962e-07
32.4688 0.0778317 1.0094e-06
30.7813 0.544942 -4.6484e-07
31.3438 0.544889 1.36208e-06
30.7813 1.01201 -3.4213e-07
31.3438 1.01191 1.42635e-06
31.9063 0.544783 -7.152e-07
32.4688 0.544624 1.1091e-06
31.9063 1.01171 -9.503e-07
32.4688 1.01142 1.1215e-06
33.0313 -0.38881 -9.3299e-07
33.5938 -0.388622 1.83394e-06
33.0313 0.0778012 -8.5804e-07
33.5938 0.0777632 1.82388e-06
34.1563 -0.388396 -2.8126e-07
34.7188 -0.388132 -5.24659e-06
34.1563 0.0777176 -1.1374e-07
34.7188 0.0776645 -5.38799e-06
33.0313 0.544412 -8.0098e-07
33.5938 0.544148 1.66414e-06
33.0313 1.01102 -7.5589e-07
33.5938 1.01053 1.74531e-06
34.1563 0.543831 -2.0877e-07
34.7188 0.543461 -5.3229e-06
34.1563 1.00994 -2.3829e-07
34.7188 1.00926 -5.17636e-06
26.2812 1.47505 5.68801e-06
26.8437 1.47606 2.6207e-07
26.2812 1.94085 5.97139e-06
26.8437 1.94217 1.2281e-07
27.4062 1.47692 -1.97247e-06
27.9687 1.47763 9.6311e-07
27.4062 1.9433 -1.90129e-06
27.9687 1.94424 1.00576e-06
26.2812 2.40665 6.05795e-06
26.8437 2.40828 1.4827e-07
26.2812 2.87245 5.8965e-06
26.8437 2.8744 1.1565e-07
27.4062 2.40968 -1.92659e-06
27.9687 2.41085 8.8383e-07
27.4062 2.87607 -1.98209e-06
27.9687 2.87746 9.3215e-07
28.5312 1.47821 -1.1328e-06
29.0937 1.47864 8.934e-07
28.5312 1.94499 -1.2649e-06
29.0937 1.94556 6.964e-07
29.6562 1.47892 -1.34848e-06
30.2187 1.47907 3.5553e-07
29.6562 1.94594 -1.36555e-06
30.2187 1.94612 5.1645e-07
28.5312 2.41178 -1.2726e-06
29.0937 2.41248 4.617e-07
28.5312 2.87857 -1.263e-06
29.0937 2.87941 6.197e-07
29.6562 2.41295 -1.42801e-06
30.2187 2.41318 5.5404e-07
29.6562 2.87996 -1.57975e-06
30.2187 2.88024 3.7941e-07
26.2812 3.33825 6.33512e-06
26.8437 3.34051 3.4569e-07
26.2812 3.80405 6.03857e-06
26.8437 3.80663 -9.823e-08
27.4062 3.34245 -2.07687e-06
27.9687 3.34407 8.4758e-07
27.4062 3.80884 -1.88707e-06
27.9687 3.81068 1.02286e-06
26.2812 4.26985 6.8251e-06
26.8437 4.27274 7.585e-07
26.2812 4.73566 3.78211e-06
26.8437 4.73886 1.68301e-06
27.4062 4.27522 -2.84792e-06
27.9687 4.27729 3.4132e-07
27.4062 4.74161 -9.86965e-07
27.9687 4.7439 4.0685e-06
28.5312 3.34536 -1.6027e-06
29.0937 3.34633 4.189e-07
28.5312 3.81215 -1.2099e-06
29.0937 3.81326 5.331e-07
29.6562 3.34698 -1.55501e-06
30.2187 3.3473 3.4449e-07
29.6562 3.81399 -2.06264e-06
30.2187 3.81436 5.8475e-07
28.5312 4.27894 -2.5666e-06
29.0937 4.28018 3.796e-07
28.5312 4.74574 -4.632e-07
29.0937 4.74711 -7.1827e-06
29.6562 4.28101 -2.28286e-06
30.2187 4.28142 1.9712e-07
29.6562 4.74803 2.2524e-07
30.2187 4.74849 1.8465e-06
30.7813 1.47907 -4.9434e-07
31.3438 1.47892 1.38077e-06
30.7813 1.94612 -4.613e-07
31.3438 1.94594 1.3272e-06
31.9063 1.47864 -8.56e-07
32.4688 1.47821 1.0793e-06
31.9063 1.94556 -6.077e-07
32.4688 1.94499 9.76e-07
30.7813 2.41318 -5.0026e-07
31.3438 2.41295 1.33148e-06
30.7813 2.88024 -4.0964e-07
31.3438 2.87996 1.51013e-06
31.9063 2.41248 -4.278e-07
32.4688 2.41178 1.0977e-06
31.9063 2.87941 -6.046e-07
32.4688 2.87857 1.141e-06
33.0313 1.47763 -9.4153e-07
33.5938 1.47692 1.77919e-06
33.0313 1.94424 -7.7257e-07
33.5938 1.9433 1.72374e-06
34.1563 1.47606 -2.9707e-07
34.7188 1.47505 -5.22529e-06
34.1563 1.94217 -1.5228e-07
34.7188 1.94085 -5.37626e-06
33.0313 2.41085 -8.4781e-07
33.5938 2.40968 1.87479e-06
33.0313 2.87746 -9.0139e-07
33.5938 2.87607 1.85889e-06
34.1563 2.40828 -1.0066e-07
34.7188 2.40665 -5.5579e-06
34.1563 2.8744 -8.993e-08
34.7188 2.87245 -5.4982e-06
30.7813 3.3473 -4.1298e-07
31.3438 3.34698 1.68519e-06
30.7813 3.81436 -4.3061e-07
31.3438 3.81399 2.01995e-06
31.9063 3.34633 -3.346e-07
32.4688 3.34536 1.3204e-06
31.9063 3.81326 -5.02e-07
32.4688 3.81215 1.1489e-06
30.7813 4.28142 -9.815e-08
31.3438 4.28101 2.39362e-06
30.7813 4.74849 -2.26246e-06
31.3438 4.74803 -1.4657e-07
31.9063 4.28018 -3.512e-07
32.4688 4.27894 2.3377e-06
31.9063 4.74711 6.8689e-06
32.4688 4.74574 4.741e-07
33.0313 3.34407 -7.2517e-07
33.5938 3.34245 1.97075e-06
33.0313 3.81068 -1.06575e-06
33.5938 3.80884 1.73654e-06
34.1563 3.34051 -3.017e-07
34.7188 3.33825 -5.75235e-06
34.1563 3.80663 -8.209e-08
34.7188 3.80405 -5.67106e-06
33.0313 4.27729 -3.0565e-07
33.5938 4.27522 2.61939e-06
33.0313 4.7439 -3.48666e-06
33.5938 4.74161 1.41814e-06
34.1563 4.27274 -6.2057e-07
34.7188 4.26985 -6.16926e-06
34.1563 4.73886 -9.99391e-07
34.7188 4.73566 -3.24148e-06
