26.2812 -9.70512 4.17017e-06
26.8437 -9.7116 7.59644e-06
26.2812 -9.23924 1.58025e-06
26.8437 -9.24541 9.01367e-07
27.4062 -9.71715 5.76543e-06
27.9686 -9.72177 3.32479e-06
27.4062 -9.2507 2.9477e-07
27.9687 -9.25511 -6.49301e-07
26.2812 -8.77336 -6.54964e-07
26.8437 -8.77923 -2.66093e-06
26.2812 -8.30748 8.63579e-07
26.8437 -8.31305 1.56552e-06
27.4062 -8.78426 -1.72403e-06
27.9687 -8.78845 -6.35588e-07
27.4062 -8.31782 1.18854e-06
27.9687 -8.32179 1.79797e-07
28.5312 -9.72548 -9.03124e-07
29.0937 -9.72825 -1.83531e-06
28.5312 -9.25864 -2.01819e-06
29.0937 -9.26128 6.989e-07
29.6562 -9.7301 -1.09788e-06
30.2187 -9.73103 -5.89073e-06
29.6562 -9.26305 1.2626e-06
30.2187 -9.26393 -4.075e-07
28.5312 -8.7918 1.48088e-06
29.0937 -8.79432 6.5267e-07
28.5312 -8.32497 -7.04006e-07
29.0937 -8.32736 -6.5e-09
29.6562 -8.79599 1.9029e-07
30.2187 -8.79683 1.3357e-06
29.6562 -8.32895 7.1711e-07
30.2187 -8.32974 3.316e-08
26.2812 -7.84161 4.4925e-08
26.8437 -7.84687 -1.05126e-06
26.2812 -7.37574 1.05361e-07
26.8437 -7.38069 4.82992e-07
27.4062 -7.85138 -7.5546e-07
27.9687 -7.85514 -3.39184e-07
27.4062 -7.38494 3.10653e-07
27.9687 -7.38848 5.7823e-08
26.2812 -6.90987 -5.24972e-07
26.8437 -6.91452 -2.67304e-07
26.2812 -6.44401 -3.80197e-07
26.8437 -6.44835 1.13185e-07
27.4062 -6.91851 -3.08928e-07
27.9687 -6.92183 -1.18015e-07
27.4062 -6.45208 1.40285e-07
27.9687 -6.45518 -7.2867e-08
28.5312 -7.85815 2.37063e-07
29.0937 -7.8604 5.1514e-07
28.5312 -7.39132 -1.3787e-07
29.0937 -7.39344 1.184e-08
29.6562 -7.8619 2.0403e-07
30.2187 -7.86265 5.3456e-07
29.6562 -7.39485 1.8707e-07
30.2187 -7.39556 6.315e-08
28.5312 -6.92449 2.6017e-08
29.0937 -6.92648 -1.42842e-07
28.5312 -6.45767 -3.2539e-08
29.0937 -6.45953 -4.5302e-08
29.6562 -6.92781 -1.18162e-07
30.2187 -6.92848 1.93178e-07
29.6562 -6.46077 1.28246e-07
30.2187 -6.46139 -3.484e-08
30.7813 -9.73103 -5.87205e-06
31.3438 -9.7301 -1.12556e-06
30.7813 -9.26393 -4.277e-07
31.3438 -9.26305 1.1441e-06
31.9063 -9.72825 -1.75287e-06
32.4688 -9.72548 -8.68696e-07
31.9063 -9.26128 6.499e-07
32.4688 -9.25864 -2.08781e-06
30.7813 -8.79683 1.27334e-06
31.3438 -8.79599 2.3381e-07
30.7813 -8.32974 -5.36e-09
31.3438 -8.32895 7.1848e-07
31.9063 -8.79432 6.3204e-07
32.4688 -8.7918 1.37655e-06
31.9063 -8.32736 -2.497e-08
32.4688 -8.32497 -5.39882e-07
33.0314 -9.72177 3.45421e-06
33.5938 -9.71715 5.71528e-06
33.0313 -9.25511 -7.37427e-07
33.5938 -9.2507 3.1991e-07
34.1563 -9.7116 7.64362e-06
34.7188 -9.70512 4.24262e-06
34.1563 -9.24541 8.2993e-07
34.7188 -9.23924 1.60757e-06
33.0313 -8.78845 -3.58373e-07
33.5938 -8.78426 -1.82783e-06
33.0313 -8.32179 1.63915e-07
33.5938 -8.31782 1.17009e-06
34.1563 -8.77923 -2.59264e-06
34.7188 -8.77336 -6.6257e-07
34.1563 -8.31305 1.65991e-06
34.7188 -8.30748 8.28277e-07
30.7813 -7.86265 4.7376e-07
31.3438 -7.8619 2.4173e-07
30.7813 -7.39556 9.549e-08
31.3438 -7.39485 1.5371e-07
31.9063 -7.8604 4.649e-07
32.4688 -7.85815 8.6471e-08
31.9063 -7.39344 -4.621e-08
32.4688 -7.39132 -2.61872e-07
30.7813 -6.92848 2.13568e-07
31.3438 -6.92781 -1.0391e-08
30.7813 -6.46139 -2.386e-08
31.3438 -6.46077 1.86815e-07
31.9063 -6.92648 -2.12199e-07
32.4688 -6.92449 1.87663e-07
31.9063 -6.45953 8.1499e-08
32.4688 -6.45767 -2.5257e-08
33.0313 -7.85514 -2.85981e-07
33.5938 -7.85138 -6.71782e-07
33.0313 -7.38848 3.12429e-07
33.5938 -7.38494 2.0151e-07
34.1563 -7.84687 -1.05886e-06
34.7188 -7.84161 5.6695e-08
34.1563 -7.38069 5.43576e-07
34.7188 -7.37574 1.06219e-07
33.0313 -6.92183 -2.41945e-07
33.5938 -6.91851 -7.0105e-08
33.0313 -6.45518 3.5952e-08
33.5938 -6.45208 3.8526e-08
34.1563 -6.91452 -3.79192e-07
34.7188 -6.90987 -5.47321e-07
34.1563 -6.44835 1.88482e-07
34.7188 -6.44401 -3.89045e-07
26.2812 -5.97814 2.60183e-07
26.8437 -5.98218 -1.2523e-08
26.2812 -5.51228 2.05015e-07
26.8437 -5.51601 -6.0534e-08
27.4062 -5.98564 -3.7426e-08
27.9687 -5.98853 -8.3677e-08
27.4062 -5.5192 -2.4536e-08
27.9687 -5.52186 -1.6346e-08
26.2812 -5.04642 -8.2623e-08
26.8437 -5.04983 -2.9254e-08
26.2812 -4.58056 -4.55862e-07
26.8437 -4.58366 5.55e-10
27.4062 -5.05276 -2.18259e-08
27.9687 -5.0552 3.34059e-08
27.4062 -4.58632 6.42282e-08
27.9687 -4.58853 -1.0155e-07
28.5312 -5.99083 5.4843e-08
29.0937 -5.99257 -5.867e-08
28.5312 -5.52399 -7.1038e-08
29.0937 -5.52559 -5.238e-08
29.6562 -5.99372 -1.041e-08
30.2187 -5.9943 1.3425e-07
29.6562 -5.52665 -2.0648e-07
30.2187 -5.52718 -1.0207e-07
28.5312 -5.05715 -1.44694e-07
29.0937 -5.05861 8.147e-09
28.5312 -4.5903 -2.59407e-08
29.0937 -4.59163 4.42e-08
29.6562 -5.05958 1.30107e-07
30.2187 -5.06007 4.548e-08
29.6562 -4.59252 8.37e-08
30.2187 -4.59296 -6.708e-08
26.2812 -4.11471 -2.09731e-07
26.8437 -4.11749 3.1727e-08
26.2812 -3.64885 -5.81598e-07
26.8437 -3.65132 6.0286e-08
27.4062 -4.11988 1.5965e-09
27.9687 -4.12187 7.68559e-08
27.4062 -3.65344 -8.7593e-08
27.9687 -3.65521 -1.02842e-07
26.2812 -3.183 -3.98409e-07
26.8437 -3.18516 -6.5742e-08
26.2812 -2.71715 -1.76476e-07
26.8437 -2.71899 -2.0395e-08
27.4062 -3.18701 -8.618e-09
27.9687 -3.18855 7.7754e-08
27.4062 -2.72057 2.80673e-07
27.9687 -2.72189 -8.4064e-08
28.5312 -4.12346 -3.7964e-08
29.0937 -4.12466 8.002e-08
28.5312 -3.65662 -4.4212e-08
29.0937 -3.65768 1.434e-07
29.6562 -4.12545 4.511e-08
30.2187 -4.12585 4.033e-08
29.6562 -3.65839 2.818e-08
30.2187 -3.65874 -1.507e-08
28.5312 -3.18978 2.4854e-08
29.0937 -3.19071 -3.8661e-07
28.5312 -2.72295 2.30069e-07
29.0937 -2.72374 -2.8678e-07
29.6562 -3.19133 -2.3947e-07
30.2187 -3.19163 -4.2696e-07
29.6562 -2.72426 3.439e-08
30.2187 -2.72453 -1.393e-07
30.7813 -5.9943 9.895e-08
31.3438 -5.99372 -4.6e-08
30.7813 -5.52718 -3.021e-08
31.3438 -5.52665 -1.7911e-07
31.9063 -5.99257 -4.861e-08
32.4688 -5.99083 -1.12295e-07
31.9063 -5.52559 2.352e-08
32.4688 -5.52399 9.5406e-08
30.7813 -5.06007 2.46817e-07
31.3438 -5.05958 1.52128e-07
30.7813 -4.59296 -4.3e-09
31.3438 -4.59252 4.118e-08
31.9063 -5.05861 3.4104e-08
32.4688 -5.05715 8.7647e-08
31.9063 -4.59163 5.558e-08
32.4688 -4.5903 -1.13936e-07
33.0313 -5.98853 -2.0985e-08
33.5938 -5.98564 -8.3465e-08
33.0313 -5.52186 -9.0338e-08
33.5938 -5.5192 -1.7209e-08
34.1563 -5.98218 -1.41975e-07
34.7188 -5.97814 2.36476e-07
34.1563 -5.51601 9.6156e-08
34.7188 -5.51228 2.11566e-07
33.0313 -5.0552 3.11551e-08
33.5938 -5.05276 5.57789e-08
33.0313 -4.58853 7.1495e-08
33.5938 -4.58632 -5.57521e-08
34.1563 -5.04983 -8.4901e-08
34.7188 -5.04642 -6.9935e-08
34.1563 -4.58366 3.595e-08
34.7188 -4.58056 -4.40751e-07
30.7813 -4.12585 3.765e-08
31.3438 -4.12545 -2.964e-08
30.7813 -3.65874 -4.01e-08
31.3438 -3.65839 8.56e-08
31.9063 -4.12466 1.938e-08
32.4688 -4.12346 -4.4973e-08
31.9063 -3.65768 2.2107e-07
32.4688 -3.65662 1.6383e-08
30.7813 -3.19163 -3.6598e-07
31.3438 -3.19133 -1.9103e-07
30.7813 -2.72453 -1.4528e-07
31.3438 -2.72426 -4.605e-08
31.9063 -3.19071 -4.1133e-07
32.4688 -3.18978 6.0084e-08
31.9063 -2.72374 -3.7617e-07
32.4688 -2.72295 1.96903e-07
33.0313 -4.12187 -1.2551e-08
33.5938 -4.11988 7.01457e-08
33.0313 -3.65521 -7.8582e-08
33.5938 -3.65344 5.5065e-08
34.1563 -4.11749 8.775e-08
34.7188 -4.11471 -2.23046e-07
34.1563 -3.65132 -7.4384e-08
34.7188 -3.64885 -5.6638e-07
33.0313 -3.18855 -4.7984e-08
33.5938 -3.18701 8.0328e-08
33.0313 -2.72189 -3.4475e-08
33.5938 -2.72057 9.0261e-08
34.1563 -3.18516 -1.52678e-07
34.7188 -3.183 -3.88737e-07
34.1563 -2.71899 8.3379e-08
34.7188 -2.71715 -1.55079e-07
26.2812 -2.25132 1.7866e-07
26.8437 -2.25285 -1.35468e-07
26.2812 -1.78552 3.93303e-07
26.8437 -1.78674 1.15879e-07
27.4062 -2.25416 -1.15405e-07
27.9687 -2.25526 -1.23037e-07
27.4062 -1.78778 -1.77883e-07
27.9687 -1.78864 2.32278e-07
26.2812 -1.31973 4.82527e-07
26.8437 -1.32062 4.7646e-08
26.2812 -0.853928 1.80972e-07
26.8437 -0.854509 -4.5113e-08
27.4062 -1.32139 7.829e-09
27.9687 -1.32203 1.17684e-07
27.4062 -0.855006 -3.11332e-08
27.9687 -0.855421 -1.98938e-07
28.5312 -2.25613 -1.53059e-07
29.0937 -2.25679 2.8344e-07
28.5312 -1.78934 -2.28168e-07
29.0937 -1.78986 2.8131e-07
29.6562 -2.25722 -2.0456e-07
30.2187 -2.25744 9.779e-08
29.6562 -1.7902 2.4779e-07
30.2187 -1.79038 1.6977e-07
28.5312 -1.32254 7.83e-10
29.0937 -1.32293 -1.6133e-07
28.5312 -0.855752 4.3347e-08
29.0937 -0.856001 -5.189e-08
29.6562 -1.32319 -2.165e-07
30.2187 -1.32331 -1.6304e-07
29.6562 -0.856167 -1.1659e-07
30.2187 -0.856249 -1.4147e-07
26.2812 -0.388132 3.99073e-07
26.8437 -0.388396 -1.60427e-07
26.2812 0.0776645 4.7804e-08
26.8437 0.0777176 1.22885e-07
27.4062 -0.388622 -2.8075e-08
27.9687 -0.38881 -4.7557e-08
27.4062 0.0777632 -1.75135e-07
27.9687 0.0778012 1.16951e-07
26.2812 0.543461 -2.19109e-07
26.8437 0.543831 -7.4497e-08
26.2812 1.00926 -2.79976e-07
26.8437 1.00994 5.599e-08
27.4062 0.544148 1.00456e-07
27.9687 0.544412 -1.29547e-07
27.4062 1.01053 1.52848e-07
27.9687 1.01102 -3.0611e-08
28.5312 -0.38896 7.1543e-08
29.0937 -0.389073 -8.024e-08
28.5312 0.0778317 -5.34425e-08
29.0937 0.0778547 -5.449e-08
29.6562 -0.389148 -7.493e-08
30.2187 -0.389186 -4.653e-08
29.6562 0.0778701 -2.2218e-07
30.2187 0.077878 -2.016e-07
28.5312 0.544624 3.0757e-08
29.0937 0.544783 -1.818e-08
28.5312 1.01142 6.8789e-08
29.0937 1.01171 -1.0591e-07
29.6562 0.544889 4.503e-08
30.2187 0.544942 -1.0722e-07
29.6562 1.01191 -1.098e-07
30.2187 1.01201 -1.9559e-07
30.7813 -2.25744 6.133e-08
31.3438 -2.25722 -1.04e-07
30.7813 -1.79038 3.0449e-07
31.3438 -1.7902 2.075e-07
31.9063 -2.25679 3.987e-07
32.4688 -2.25613 -1.41144e-07
31.9063 -1.78986 4.1422e-07
32.4688 -1.78934 -9.6704e-08
30.7813 -1.32331 -8.331e-08
31.3438 -1.32319 -1.364e-07
30.7813 -0.856249 -1.7576e-07
31.3438 -0.856167 -8.735e-08
31.9063 -1.32293 -1.1268e-07
32.4688 -1.32254 -9.8102e-08
31.9063 -0.856001 4.083e-08
32.4688 -0.855752 1.86113e-07
33.0313 -2.25526 -8.7323e-08
33.5938 -2.25416 -1.02961e-07
33.0313 -1.78864 1.40677e-07
33.5938 -1.78778 -1.74269e-07
34.1563 -2.25285 -1.03431e-07
34.7188 -2.25132 1.79322e-07
34.1563 -1.78674 1.69911e-07
34.7188 -1.78552 3.70085e-07
33.0313 -1.32203 1.43005e-07
33.5938 -1.32139 -1.31549e-07
33.0313 -0.855421 -2.29725e-07
33.5938 -0.855006 1.43829e-07
34.1563 -1.32062 -5.674e-09
34.7188 -1.31973 5.13126e-07
34.1563 -0.854509 -1.49964e-07
34.7188 -0.853928 1.5576e-07
30.7813 -0.389186 -8.82e-09
31.3438 -0.389148 -3.827e-08
30.7813 0.077878 -1.7448e-07
31.3438 0.0778701 -2.293e-07
31.9063 -0.389073 -4.314e-08
32.4688 -0.38896 -1.4022e-08
31.9063 0.0778547 -8.645e-08
32.4688 0.0778317 -1.70032e-07
30.7813 0.544942 3.297e-08
31.3438 0.544889 7.37e-08
30.7813 1.01201 -2.4728e-07
31.3438 1.01191 -4.957e-08
31.9063 0.544783 -3.663e-08
32.4688 0.544624 -7.1951e-08
31.9063 1.01171 -9.771e-08
32.4688 1.01142 2.02232e-07
33.0313 -0.38881 -5.8044e-08
33.5938 -0.388622 -2.8612e-08
33.0313 0.0778012 1.61188e-07
33.5938 0.0777632 -8.3615e-08
34.1563 -0.388396 -5.9564e-08
34.7188 -0.388132 4.00358e-07
34.1563 0.0777176 6.3086e-08
34.7188 0.0776645 4.7807e-08
33.0313 0.544412 4.5413e-08
33.5938 0.544148 9.9368e-08
33.0313 1.01102 -2.20072e-07
33.5938 1.01053 4.7319e-08
34.1563 0.543831 -1.9292e-07
34.7188 0.543461 -2.27333e-07
34.1563 1.00994 1.17482e-07
34.7188 1.00926 -2.97504e-07
26.2812 1.47505 2.38173e-07
26.8437 1.47606 -1.54982e-07
26.2812 1.94085 2.9693e-07
26.8437 1.94217 2.40946e-07
27.4062 1.47692 -1.68866e-07
27.9687 1.47763 7.296e-09
27.4062 1.9433 1.02993e-07
27.9687 1.94424 1.98707e-07
26.2812 2.40665 -2.02359e-07
26.8437 2.40828 -5.34247e-07
26.2812 2.87245 -1.11147e-07
26.8437 2.8744 1.06612e-06
27.4062 2.40968 -2.31327e-07
27.9687 2.41085 -3.0944e-07
27.4062 2.87607 8.12155e-07
27.9687 2.87746 4.40052e-07
28.5312 1.47821 -8.6141e-08
29.0937 1.47864 -2.766e-08
28.5312 1.94499 3.309e-09
29.0937 1.94556 -1.2561e-07
29.6562 1.47892 -1.7934e-07
30.2187 1.47907 -1.515e-08
29.6562 1.94594 -1.6583e-07
30.2187 1.94612 -3.1765e-07
28.5312 2.41178 1.05471e-07
29.0937 2.41248 -1.5641e-07
28.5312 2.87857 -1.10701e-07
29.0937 2.87941 -2.3785e-07
29.6562 2.41295 -3.6962e-07
30.2187 2.41318 -2.3252e-07
29.6562 2.87996 1.909e-08
30.2187 2.88024 -5.2669e-07
26.2812 3.33825 -8.95447e-07
26.8437 3.34051 -1.56018e-06
26.2812 3.80405 5.27174e-07
26.8437 3.80663 2.52422e-06
27.4062 3.34245 -1.3532e-06
27.9687 3.34407 -3.80166e-07
27.4062 3.80884 1.95041e-06
27.9687 3.81068 7.33478e-07
26.2812 4.26985 -1.26807e-06
26.8437 4.27274 -9.8898e-07
26.2812 4.73566 -3.353e-06
26.8437 4.73886 -7.24358e-06
27.4062 4.27522 -4.38521e-07
27.9687 4.27729 4.53591e-07
27.4062 4.74161 -6.00818e-06
27.9687 4.7439 -4.34651e-06
28.5312 3.34536 3.5644e-07
29.0937 3.34633 -2.5787e-07
28.5312 3.81215 -1.11936e-06
29.0937 3.81326 -4.3624e-07
29.6562 3.34698 -1.00698e-06
30.2187 3.3473 -2.01e-07
29.6562 3.81399 3.181e-08
30.2187 3.81436 -1.35159e-06
28.5312 4.27894 1.77942e-06
29.0937 4.28018 -9.3813e-07
28.5312 4.74574 -4.5022e-07
29.0937 4.74711 1.10205e-06
29.6562 4.28101 -1.50438e-06
30.2187 4.28142 2.9581e-07
29.6562 4.74803 -5.2171e-07
30.2187 4.74849 4.71084e-06
30.7813 1.47907 -8.707e-08
31.3438 1.47892 -2.6167e-07
30.7813 1.94612 -3.2195e-07
31.3438 1.94594 -1.6808e-07
31.9063 1.47864 -1.836e-08
32.4688 1.47821 -7.1948e-08
31.9063 1.94556 -1.773e-07
32.4688 1.94499 -1.3328e-07
30.7813 2.41318 -1.9649e-07
31.3438 2.41295 -3.8703e-07
30.7813 2.88024 -4.9734e-07
31.3438 2.87996 1.626e-08
31.9063 2.41248 -1.6663e-07
32.4688 2.41178 2.1275e-07
31.9063 2.87941 -1.7461e-07
32.4688 2.87857 -5.8807e-08
33.0313 1.47763 3.322e-09
33.5938 1.47692 -8.9111e-08
33.0313 1.94424 2.55275e-07
33.5938 1.9433 9.9715e-08
34.1563 1.47606 -1.55469e-07
34.7188 1.47505 2.60004e-07
34.1563 1.94217 3.18751e-07
34.7188 1.94085 2.77943e-07
33.0313 2.41085 -3.28113e-07
33.5938 2.40968 -3.98635e-07
33.0313 2.87746 4.36765e-07
33.5938 2.87607 8.548e-07
34.1563 2.40828 -3.79715e-07
34.7188 2.40665 -1.90588e-07
34.1563 2.8744 8.70036e-07
34.7188 2.87245 -1.0159e-07
30.7813 3.3473 -2.321e-07
31.3438 3.34698 -9.6274e-07
30.7813 3.81436 -1.36032e-06
31.3438 3.81399 1.394e-08
31.9063 3.34633 -2.4664e-07
32.4688 3.34536 4.25813e-07
31.9063 3.81326 -5.1984e-07
32.4688 3.81215 -1.2543e-06
30.7813 4.28142 3.9524e-07
31.3438 4.28101 -1.48278e-06
30.7813 4.74849 4.70218e-06
31.3438 4.74803 -5.2318e-07
31.9063 4.28018 -9.2416e-07
32.4688 4.27894 1.72526e-06
31.9063 4.74711 1.13685e-06
32.4688 4.74574 -3.9715e-07
33.0313 3.34407 -4.98149e-07
33.5938 3.34245 -1.29768e-06
33.0313 3.81068 7.85365e-07
33.5938 3.80884 1.92725e-06
34.1563 3.34051 -1.55455e-06
34.7188 3.33825 -8.94274e-07
34.1563 3.80663 2.56753e-06
34.7188 3.80405 5.58798e-07
33.0313 4.27729 5.92438e-07
33.5938 4.27522 -4.09122e-07
33.0313 4.7439 -4.48317e-06
33.5938 4.74161 -6.05291e-06
34.1563 4.27274 -1.05882e-06
34.7188 4.26985 -1.30126e-06
34.1563 4.73886 -7.25326e-06
34.7188 4.73566 -3.3652e-06
