28.5312 -6.92449 0.026017
29.0937 -6.92648 -0.142842
28.5312 -6.45767 -0.032539
29.0937 -6.45953 -0.045302
29.6562 -6.92781 -0.118162
30.2187 -6.92848 0.193178
29.6562 -6.46077 0.128246
30.2187 -6.46139 -0.03484
30.7813 -6.92848 0.213568
31.3438 -6.92781 -0.010391
30.7813 -6.46139 -0.02386
31.3438 -6.46077 0.186815
31.9063 -6.92648 -0.212199
32.4688 -6.92449 0.187663
31.9063 -6.45953 0.081499
32.4688 -6.45767 -0.025257
28.5312 -5.99083 0.054843
29.0937 -5.99257 -0.05867
28.5312 -5.52399 -0.071038
29.0937 -5.52559 -0.05238
29.6562 -5.99372 -0.01041
30.2187 -5.9943 0.13425
29.6562 -5.52665 -0.20648
30.2187 -5.52718 -0.10207
28.5312 -5.05715 -0.144694
29.0937 -5.05861 0.008147
28.5312 -4.5903 -0.0259407
29.0937 -4.59163 0.0442
29.6562 -5.05958 0.130107
30.2187 -5.06007 0.04548
29.6562 -4.59252 0.0837
30.2187 -4.59296 -0.06708
28.5312 -4.12346 -0.037964
29.0937 -4.12466 0.08002
28.5312 -3.65662 -0.044212
29.0937 -3.65768 0.1434
29.6562 -4.12545 0.04511
30.2187 -4.12585 0.04033
29.6562 -3.65839 0.02818
30.2187 -3.65874 -0.01507
28.5312 -3.18978 0.024854
29.0937 -3.19071 -0.38661
28.5312 -2.72295 0.230069
29.0937 -2.72374 -0.28678
29.6562 -3.19133 -0.23947
30.2187 -3.19163 -0.42696
29.6562 -2.72426 0.03439
30.2187 -2.72453 -0.1393
30.7813 -5.9943 0.09895
31.3438 -5.99372 -0.046
30.7813 -5.52718 -0.03021
31.3438 -5.52665 -0.17911
31.9063 -5.99257 -0.04861
32.4688 -5.99083 -0.112295
31.9063 -5.52559 0.02352
32.4688 -5.52399 0.095406
30.7813 -5.06007 0.246817
31.3438 -5.05958 0.152128
30.7813 -4.59296 -0.0043
31.3438 -4.59252 0.04118
31.9063 -5.05861 0.034104
32.4688 -5.05715 0.087647
31.9063 -4.59163 0.05558
32.4688 -4.5903 -0.113936
30.7813 -4.12585 0.03765
31.3438 -4.12545 -0.02964
30.7813 -3.65874 -0.0401
31.3438 -3.65839 0.0856
31.9063 -4.12466 0.01938
32.4688 -4.12346 -0.044973
31.9063 -3.65768 0.22107
32.4688 -3.65662 0.016383
30.7813 -3.19163 -0.36598
31.3438 -3.19133 -0.19103
30.7813 -2.72453 -0.14528
31.3438 -2.72426 -0.04605
31.9063 -3.19071 -0.41133
32.4688 -3.18978 0.060084
31.9063 -2.72374 -0.37617
32.4688 -2.72295 0.196903
28.5312 -2.25613 -0.153059
29.0937 -2.25679 0.28344
28.5312 -1.78934 -0.228168
29.0937 -1.78986 0.28131
29.6562 -2.25722 -0.20456
30.2187 -2.25744 0.09779
29.6562 -1.7902 0.24779
30.2187 -1.79038 0.16977
28.5312 -1.32254 0.000783
29.0937 -1.32293 -0.16133
28.5312 -0.855752 0.043347
29.0937 -0.856001 -0.05189
29.6562 -1.32319 -0.2165
30.2187 -1.32331 -0.16304
29.6562 -0.856167 -0.11659
30.2187 -0.856249 -0.14147
28.5312 -0.38896 0.071543
29.0937 -0.389073 -0.08024
28.5312 0.0778317 -0.0534425
29.0937 0.0778547 -0.05449
29.6562 -0.389148 -0.07493
30.2187 -0.389186 -0.04653
29.6562 0.0778701 -0.22218
30.2187 0.077878 -0.2016
28.5312 0.544624 0.030757
29.0937 0.544783 -0.01818
28.5312 1.01142 0.068789
29.0937 1.01171 -0.10591
29.6562 0.544889 0.04503
30.2187 0.544942 -0.10722
29.6562 1.01191 -0.1098
30.2187 1.01201 -0.19559
30.7813 -2.25744 0.06133
31.3438 -2.25722 -0.104
30.7813 -1.79038 0.30449
31.3438 -1.7902 0.2075
31.9063 -2.25679 0.3987
32.4688 -2.25613 -0.141144
31.9063 -1.78986 0.41422
32.4688 -1.78934 -0.096704
30.7813 -1.32331 -0.08331
31.3438 -1.32319 -0.1364
30.7813 -0.856249 -0.17576
31.3438 -0.856167 -0.08735
31.9063 -1.32293 -0.11268
32.4688 -1.32254 -0.098102
31.9063 -0.856001 0.04083
32.4688 -0.855752 0.186113
30.7813 -0.389186 -0.00882
31.3438 -0.389148 -0.03827
30.7813 0.077878 -0.17448
31.3438 0.0778701 -0.2293
31.9063 -0.389073 -0.04314
32.4688 -0.38896 -0.014022
31.9063 0.0778547 -0.08645
32.4688 0.0778317 -0.170032
30.7813 0.544942 0.03297
31.3438 0.544889 0.0737
30.7813 1.01201 -0.24728
31.3438 1.01191 -0.04957
31.9063 0.544783 -0.03663
32.4688 0.544624 -0.071951
31.9063 1.01171 -0.09771
32.4688 1.01142 0.202232
28.5312 1.47821 -0.086141
29.0937 1.47864 -0.02766
28.5312 1.94499 0.003309
29.0937 1.94556 -0.12561
29.6562 1.47892 -0.17934
30.2187 1.47907 -0.01515
29.6562 1.94594 -0.16583
30.2187 1.94612 -0.31765
28.5312 2.41178 0.105471
29.0937 2.41248 -0.15641
28.5312 2.87857 -0.110701
29.0937 2.87941 -0.23785
29.6562 2.41295 -0.36962
30.2187 2.41318 -0.23252
29.6562 2.87996 0.01909
30.2187 2.88024 -0.52669
30.7813 1.47907 -0.08707
31.3438 1.47892 -0.26167
30.7813 1.94612 -0.32195
31.3438 1.94594 -0.16808
31.9063 1.47864 -0.01836
32.4688 1.47821 -0.071948
31.9063 1.94556 -0.1773
32.4688 1.94499 -0.13328
30.7813 2.41318 -0.19649
31.3438 2.41295 -0.38703
30.7813 2.88024 -0.49734
31.3438 2.87996 0.01626
31.9063 2.41248 -0.16663
32.4688 2.41178 0.21275
31.9063 2.87941 -0.17461
32.4688 2.87857 -0.058807
