26.5624 -9.47545 490.515
27.6874 -9.4863 863.751
26.5625 -8.54338 1453.21
27.6874 -8.55318 15.6188
28.8124 -9.49352 661.054
29.9375 -9.49714 289.529
28.8124 -8.55972 476.358
29.9375 -8.56298 352.074
26.5625 -7.61132 193.198
27.6874 -7.62008 35.7404
26.5625 -6.67927 86.857
27.6875 -6.68698 50.1076
28.8124 -7.62592 524.941
29.9375 -7.62883 1079.89
28.8125 -6.69212 119.468
29.9375 -6.69469 93.1036
31.0625 -9.49714 295.489
32.1876 -9.49352 635.388
31.0625 -8.56298 335.755
32.1876 -8.55972 466.371
33.3126 -9.4863 863.767
34.4376 -9.47545 491.833
33.3126 -8.55318 26.5573
34.4375 -8.54338 1432.67
31.0625 -7.62883 1027.99
32.1876 -7.62592 532.642
31.0625 -6.69469 92.4936
32.1875 -6.69212 109.641
33.3126 -7.62008 33.7918
34.4375 -7.61132 192.143
33.3125 -6.68698 49.9422
34.4375 -6.67927 86.6748
26.5625 -5.74722 89.9553
27.6875 -5.75388 61.4972
26.5625 -4.81518 76.1267
27.6875 -4.82076 47.507
28.8125 -5.75831 87.5901
29.9375 -5.76053 69.4196
28.8125 -4.82448 46.6425
29.9375 -4.82634 11.8039
26.5625 -3.88314 79.5833
27.6875 -3.88765 50.8385
26.5625 -2.95111 82.8383
27.6875 -2.95454 58.1039
28.8125 -3.89065 114.46
29.9375 -3.89215 3.38214
28.8125 -2.95683 198.286
29.9375 -2.95797 22.4282
31.0625 -5.76053 67.8954
32.1875 -5.75831 87.7029
31.0625 -4.82634 11.5912
32.1875 -4.82448 51.0475
33.3125 -5.75388 61.6155
34.4375 -5.74722 89.4945
33.3125 -4.82076 47.4869
34.4375 -4.81518 75.7872
31.0625 -3.89215 3.81147
32.1875 -3.89065 112.365
31.0625 -2.95797 23.7465
32.1875 -2.95683 194.997
33.3125 -3.88765 50.3331
34.4375 -3.88314 79.5295
33.3125 -2.95454 56.2562
34.4375 -2.95111 82.7907
26.5625 -2.01913 132.369
27.6875 -2.02148 196.102
26.5625 -1.08721 1427.89
27.6875 -1.08848 990.957
28.8125 -2.02305 78.9484
29.9375 -2.02384 53.7885
28.8125 -1.08932 73.9925
29.9375 -1.08974 49.571
26.5625 -0.155288 171.811
27.6875 -0.155469 896.157
26.5625 0.776633 105.171
27.6875 0.777539 159.747
28.8125 -0.155589 101.966
29.9375 -0.155648 72.1294
28.8125 0.778143 210.166
29.9375 0.778445 196.988
31.0625 -2.02384 55.5724
32.1875 -2.02305 76.7318
31.0625 -1.08974 49.1829
32.1875 -1.08932 71.3617
33.3125 -2.02148 189.575
34.4375 -2.01913 133.203
33.3125 -1.08848 1081.97
34.4375 -1.08721 2406.04
31.0625 -0.155648 71.0079
32.1875 -0.155589 100.116
31.0625 0.778445 202.32
32.1875 0.778143 211.455
33.3125 -0.155469 932.331
34.4375 -0.155288 160.128
33.3125 0.777539 158.676
34.4375 0.776633 104.587
26.5625 1.70855 85.1783
27.6875 1.71054 210.469
26.5625 2.64048 23.6978
27.6875 2.64355 89.7591
28.8125 1.71187 185.022
29.9375 1.71253 167.555
28.8125 2.64559 712.536
29.9375 2.64661 3664.17
26.5625 3.5724 58.3306
27.6875 3.57655 50.1494
26.5625 4.50433 296.817
27.6875 4.50956 512.367
28.8125 3.57932 6969.31
29.9375 3.5807 438.276
28.8125 4.51305 1010.03
29.9375 4.51479 314.933
31.0625 1.71253 169.481
32.1875 1.71187 186.289
31.0625 2.64661 16024.3
32.1875 2.64559 779.056
33.3125 1.71054 210.512
34.4375 1.70855 83.6671
33.3125 2.64355 88.6789
34.4375 2.64048 23.6404
31.0625 3.5807 411.777
32.1875 3.57932 4157.51
31.0625 4.51479 309.36
32.1875 4.51305 971.709
33.3125 3.57655 49.2125
34.4375 3.5724 58.0095
33.3125 4.50956 512.827
34.4375 4.50433 296.441
