26.5624 -9.47545 779.138
27.6874 -9.4863 838.867
26.5625 -8.54338 150.427
27.6874 -8.55318 41.154
28.8124 -9.49352 218.832
29.9375 -9.49714 139.002
28.8124 -8.55972 72.2523
29.9375 -8.56298 66.3288
26.5625 -7.61132 97.3491
27.6874 -7.62008 43.4426
26.5625 -6.67927 82.3093
27.6875 -6.68698 50.4645
28.8124 -7.62592 21.2222
29.9375 -7.62883 48.569
28.8125 -6.69212 15.645
29.9375 -6.69469 16.9813
31.0625 -9.49714 138.732
32.1876 -9.49352 219.368
31.0625 -8.56298 67.0648
32.1876 -8.55972 70.898
33.3126 -9.4863 833.784
34.4376 -9.47545 766.944
33.3126 -8.55318 42.3422
34.4375 -8.54338 150.596
31.0625 -7.62883 48.2337
32.1876 -7.62592 19.5378
31.0625 -6.69469 16.7067
32.1875 -6.69212 16.9111
33.3126 -7.62008 44.2145
34.4375 -7.61132 97.489
33.3125 -6.68698 51.1201
34.4375 -6.67927 82.3642
26.5625 -5.74722 85.2235
27.6875 -5.75388 57.2758
26.5625 -4.81518 80.6323
27.6875 -4.82076 55.6987
28.8125 -5.75831 27.9693
29.9375 -5.76053 5.39518
28.8125 -4.82448 46.003
29.9375 -4.82634 36.2634
26.5625 -3.88314 83.5371
27.6875 -3.88765 59.5687
26.5625 -2.95111 86.3505
27.6875 -2.95454 64.8135
28.8125 -3.89065 63.7866
29.9375 -3.89215 85.1033
28.8125 -2.95683 71.9333
29.9375 -2.95797 93.4365
31.0625 -5.76053 5.35766
32.1875 -5.75831 29.1588
31.0625 -4.82634 38.4453
32.1875 -4.82448 46.6618
33.3125 -5.75388 57.7022
34.4375 -5.74722 85.2431
33.3125 -4.82076 55.9252
34.4375 -4.81518 80.609
31.0625 -3.89215 84.2699
32.1875 -3.89065 63.864
31.0625 -2.95797 91.6085
32.1875 -2.95683 71.4269
33.3125 -3.88765 59.608
34.4375 -3.88314 83.5945
33.3125 -2.95454 64.6677
34.4375 -2.95111 86.4136
26.5625 -2.01913 98.248
27.6875 -2.02148 92.9488
26.5625 -1.08721 105.813
27.6875 -1.08848 110.789
28.8125 -2.02305 59.6673
29.9375 -2.02384 43.6397
28.8125 -1.08932 64.2372
29.9375 -1.08974 47.4505
26.5625 -0.155288 117.733
27.6875 -0.155469 123.023
26.5625 0.776633 98.438
27.6875 0.777539 108.862
28.8125 -0.155589 83.1617
29.9375 -0.155648 65.2864
28.8125 0.778143 133.674
29.9375 0.778445 144.674
31.0625 -2.02384 43.6514
32.1875 -2.02305 59.4466
31.0625 -1.08974 47.8902
32.1875 -1.08932 63.9895
33.3125 -2.02148 92.355
34.4375 -2.01913 98.3111
33.3125 -1.08848 109.864
34.4375 -1.08721 105.761
31.0625 -0.155648 65.5708
32.1875 -0.155589 82.8372
31.0625 0.778445 143.981
32.1875 0.778143 134.394
33.3125 -0.155469 122.048
34.4375 -0.155288 117.543
33.3125 0.777539 108.61
34.4375 0.776633 98.4318
26.5625 1.70855 99.9891
27.6875 1.71054 133.998
26.5625 2.64048 59.9157
27.6875 2.64355 107.039
28.8125 1.71187 162.804
29.9375 1.71253 173.277
28.8125 2.64559 576.582
29.9375 2.64661 44673.2
26.5625 3.5724 8.84685
27.6875 3.57655 80.6489
26.5625 4.50433 297.681
27.6875 4.50956 536.867
28.8125 3.57932 2647.34
29.9375 3.5807 334.949
28.8125 4.51305 740.122
29.9375 4.51479 280.096
31.0625 1.71253 174.526
32.1875 1.71187 164.344
31.0625 2.64661 37628.7
32.1875 2.64559 568.678
33.3125 1.71054 135.333
34.4375 1.70855 99.8583
33.3125 2.64355 108.366
34.4375 2.64048 59.976
31.0625 3.5807 337.878
32.1875 3.57932 2574.53
31.0625 4.51479 279.539
32.1875 4.51305 738.704
33.3125 3.57655 81.6951
34.4375 3.5724 8.33995
33.3125 4.50956 534.997
34.4375 4.50433 297.112
