26.5624 -9.47545 138.159
27.6874 -9.4863 60.4157
26.5625 -8.54338 105.126
27.6874 -8.55318 20.8575
28.8124 -9.49352 81.0208
29.9375 -9.49714 65.3849
28.8124 -8.55972 35.9086
29.9375 -8.56298 26.4809
26.5625 -7.61132 96.5454
27.6874 -7.62008 11.0258
26.5625 -6.67927 95.8544
27.6875 -6.68698 8.24671
28.8124 -7.62592 17.6861
29.9375 -7.62883 10.045
28.8125 -6.69212 11.0732
29.9375 -6.69469 3.4668
31.0625 -9.49714 47.7734
32.1876 -9.49352 73.401
31.0625 -8.56298 15.2488
32.1876 -8.55972 30.9076
33.3126 -9.4863 56.9302
34.4376 -9.47545 131.162
33.3126 -8.55318 21.0822
34.4375 -8.54338 107.115
31.0625 -7.62883 3.02323
32.1876 -7.62592 15.2753
31.0625 -6.69469 0.687952
32.1875 -6.69212 11.1303
33.3126 -7.62008 11.8124
34.4375 -7.61132 96.5688
33.3125 -6.68698 9.57161
34.4375 -6.67927 94.5537
26.5625 -5.74722 95.0965
27.6875 -5.75388 7.02379
26.5625 -4.81518 94.8089
27.6875 -4.82076 5.77998
28.8125 -5.75831 8.66608
29.9375 -5.76053 1.45244
28.8125 -4.82448 6.58326
29.9375 -4.82634 0.873608
26.5625 -3.88314 96.5133
27.6875 -3.88765 4.43959
26.5625 -2.95111 99.8549
27.6875 -2.95454 3.62908
28.8125 -3.89065 5.45637
29.9375 -3.89215 1.55466
28.8125 -2.95683 4.57774
29.9375 -2.95797 1.31469
31.0625 -5.76053 2.01637
32.1875 -5.75831 9.19442
31.0625 -4.82634 2.54659
32.1875 -4.82448 7.89009
33.3125 -5.75388 8.66833
34.4375 -5.74722 94.1897
33.3125 -4.82076 7.33093
34.4375 -4.81518 93.5417
31.0625 -3.89215 2.28654
32.1875 -3.89065 6.81569
31.0625 -2.95797 2.24668
32.1875 -2.95683 5.31737
33.3125 -3.88765 5.88167
34.4375 -3.88314 95.5005
33.3125 -2.95454 4.68252
34.4375 -2.95111 99.0628
26.5625 -2.01913 98.9232
27.6875 -2.02148 3.02134
26.5625 -1.08721 95.4164
27.6875 -1.08848 3.19176
28.8125 -2.02305 3.97756
29.9375 -2.02384 1.38737
28.8125 -1.08932 3.94784
29.9375 -1.08974 0.503784
26.5625 -0.155288 93.0292
27.6875 -0.155469 3.8132
26.5625 0.776633 93.0214
27.6875 0.777539 4.2699
28.8125 -0.155589 3.84181
29.9375 -0.155648 0.261099
28.8125 0.778143 4.64341
29.9375 0.778445 0.898751
31.0625 -2.02384 2.57376
32.1875 -2.02305 4.48636
31.0625 -1.08974 1.15482
32.1875 -1.08932 4.26096
33.3125 -2.02148 3.7981
34.4375 -2.01913 98.96
33.3125 -1.08848 3.53244
34.4375 -1.08721 95.5028
31.0625 -0.155648 0.205673
32.1875 -0.155589 3.70855
31.0625 0.778445 0.493263
32.1875 0.778143 4.05105
33.3125 -0.155469 3.73185
34.4375 -0.155288 92.9949
33.3125 0.777539 3.91452
34.4375 0.776633 92.7274
26.5625 1.70855 93.0287
27.6875 1.71054 4.34033
26.5625 2.64048 93.8476
27.6875 2.64355 6.03928
28.8125 1.71187 5.71506
29.9375 1.71253 2.17196
28.8125 2.64559 10.3472
29.9375 2.64661 6.70012
26.5625 3.5724 103.768
27.6875 3.57655 15.5224
26.5625 4.50433 138.008
27.6875 4.50956 56.8507
28.8125 3.57932 26.7652
29.9375 3.5807 21.3194
28.8125 4.51305 73.1812
29.9375 4.51479 61.1819
31.0625 1.71253 0.486118
32.1875 1.71187 4.7855
31.0625 2.64661 2.20198
32.1875 2.64559 8.79991
33.3125 1.71054 3.81663
34.4375 1.70855 92.7313
33.3125 2.64355 5.53299
34.4375 2.64048 94.2758
31.0625 3.5807 15.4767
32.1875 3.57932 24.6522
31.0625 4.51479 53.0837
32.1875 4.51305 70.0077
33.3125 3.57655 15.2677
34.4375 3.5724 105.622
33.3125 4.50956 55.2344
34.4375 4.50433 135.626
