26.2812 -9.70512 9510.9
26.8437 -9.7116 207.371
26.2812 -9.23924 9215.58
26.8437 -9.24541 33.9522
27.4062 -9.71715 257.426
27.9686 -9.72177 293.243
27.4062 -9.2507 792.679
27.9687 -9.25511 4.89191
26.2812 -8.77336 3765.51
26.8437 -8.77923 20.6668
26.2812 -8.30748 2528.55
26.8437 -8.31305 18.7034
27.4062 -8.78426 36485.3
27.9687 -8.78845 40.1443
27.4062 -8.31782 1054.06
27.9687 -8.32179 25.6358
28.5312 -9.72548 5.53335
29.0937 -9.72825 19.385
28.5312 -9.25864 6.51528
29.0937 -9.26128 0.175232
29.6562 -9.7301 5.07351
30.2187 -9.73103 25.9815
29.6562 -9.26305 43.7341
30.2187 -9.26393 2.00465
28.5312 -8.7918 1.78652
29.0937 -8.79432 0.638762
28.5312 -8.32497 3.40446
29.0937 -8.32736 0.503039
29.6562 -8.79599 50.2249
30.2187 -8.79683 18.7815
29.6562 -8.32895 39.7397
30.2187 -8.32974 13.7335
26.2812 -7.84161 2049.93
26.8437 -7.84687 14.1756
26.2812 -7.37574 2195.73
26.8437 -7.38069 0.293757
27.4062 -7.85138 863.775
27.9687 -7.85514 25.0992
27.4062 -7.38494 531.994
27.9687 -7.38848 26.3751
26.2812 -6.90987 2274.49
26.8437 -6.91452 0.214302
26.2812 -6.44401 2545.75
26.8437 -6.44835 6.98575
27.4062 -6.91851 661.212
27.9687 -6.92183 32.0313
27.4062 -6.45208 908.125
27.9687 -6.45518 55.6114
28.5312 -7.85815 2.14299
29.0937 -7.8604 1.41789
28.5312 -7.39132 1.30216
29.0937 -7.39344 1.08268
29.6562 -7.8619 43.318
30.2187 -7.86265 17.2025
29.6562 -7.39485 33.4956
30.2187 -7.39556 17.7325
28.5312 -6.92449 2.12798
29.0937 -6.92648 1.49733
28.5312 -6.45767 3.18882
29.0937 -6.45953 1.90585
29.6562 -6.92781 49.3806
30.2187 -6.92848 14.0458
29.6562 -6.46077 45.3095
30.2187 -6.46139 9.55473
30.7813 -9.73103 38.0641
31.3438 -9.7301 11.7473
30.7813 -9.26393 0.742948
31.3438 -9.26305 77.5023
31.9063 -9.72825 19.297
32.4688 -9.72548 4.91277
31.9063 -9.26128 0.603344
32.4688 -9.25864 5.78728
30.7813 -8.79683 9.45828
31.3438 -8.79599 68.0568
30.7813 -8.32974 10.547
31.3438 -8.32895 58.2285
31.9063 -8.79432 0.370966
32.4688 -8.7918 2.32253
31.9063 -8.32736 0.712267
32.4688 -8.32497 2.78213
33.0314 -9.72177 313.9
33.5938 -9.71715 817.954
33.0313 -9.25511 16.5201
33.5938 -9.2507 1866.21
34.1563 -9.7116 86.7062
34.7188 -9.70512 22617.2
34.1563 -9.24541 24.7151
34.7188 -9.23924 43640.5
33.0313 -8.78845 48.5006
33.5938 -8.78426 1549.89
33.0313 -8.32179 39.3165
33.5938 -8.31782 1272.91
34.1563 -8.77923 5.2598
34.7188 -8.77336 3691.41
34.1563 -8.31305 3.7516
34.7188 -8.30748 2626.75
30.7813 -7.86265 10.8919
31.3438 -7.8619 56.9151
30.7813 -7.39556 16.3543
31.3438 -7.39485 41.664
31.9063 -7.8604 1.13424
32.4688 -7.85815 2.0532
31.9063 -7.39344 1.00876
32.4688 -7.39132 1.83453
30.7813 -6.92848 16.3153
31.3438 -6.92781 49.0387
30.7813 -6.46139 9.93982
31.3438 -6.46077 42.8505
31.9063 -6.92648 1.48561
32.4688 -6.92449 2.46263
31.9063 -6.45953 1.78885
32.4688 -6.45767 3.09998
33.0313 -7.85514 41.5626
33.5938 -7.85138 577.443
33.0313 -7.38848 28.1882
33.5938 -7.38494 538.8
34.1563 -7.84687 9.10803
34.7188 -7.84161 2436.28
34.1563 -7.38069 2.01693
34.7188 -7.37574 2253.84
33.0313 -6.92183 39.8954
33.5938 -6.91851 604.963
33.0313 -6.45518 56.47
33.5938 -6.45208 1160.17
34.1563 -6.91452 8.35548
34.7188 -6.90987 2061.78
34.1563 -6.44835 13.6872
34.7188 -6.44401 2281.07
26.2812 -5.97814 2395.1
26.8437 -5.98218 9.6906
26.2812 -5.51228 2050.89
26.8437 -5.51601 11.2364
27.4062 -5.98564 1395.26
27.9687 -5.98853 60.9754
27.4062 -5.5192 625.606
27.9687 -5.52186 48.7987
26.2812 -5.04642 1986.68
26.8437 -5.04983 5.63012
26.2812 -4.58056 2168.72
26.8437 -4.58366 12.101
27.4062 -5.05276 616.076
27.9687 -5.0552 47.7056
27.4062 -4.58632 956.817
27.9687 -4.58853 54.9486
28.5312 -5.99083 3.16062
29.0937 -5.99257 2.20116
28.5312 -5.52399 2.61634
29.0937 -5.52559 1.52992
29.6562 -5.99372 37.5567
30.2187 -5.9943 9.3756
29.6562 -5.52665 41.99
30.2187 -5.52718 10.9556
28.5312 -5.05715 2.89054
29.0937 -5.05861 1.5788
28.5312 -4.5903 3.25944
29.0937 -4.59163 1.8774
29.6562 -5.05958 45.8435
30.2187 -5.06007 10.5792
29.6562 -4.59252 40.8587
30.2187 -4.59296 8.16915
26.2812 -4.11471 2158.1
26.8437 -4.11749 19.4887
26.2812 -3.64885 3484.8
26.8437 -3.65132 16.3866
27.4062 -4.11988 1441.46
27.9687 -4.12187 64.8047
27.4062 -3.65344 1745.73
27.9687 -3.65521 87.8813
26.2812 -3.183 8178.32
26.8437 -3.18516 35.3517
26.2812 -2.71715 2044.92
26.8437 -2.71899 31.9517
27.4062 -3.18701 655.152
27.9687 -3.18855 112.276
27.4062 -2.72057 1527.49
27.9687 -2.72189 171.153
28.5312 -4.12346 3.43962
29.0937 -4.12466 2.4576
28.5312 -3.65662 3.48677
29.0937 -3.65768 3.01473
29.6562 -4.12545 38.1156
30.2187 -4.12585 6.10898
29.6562 -3.65839 37.1688
30.2187 -3.65874 7.46014
28.5312 -3.18978 4.35907
29.0937 -3.19071 4.07634
28.5312 -2.72295 5.36159
29.0937 -2.72374 5.85893
29.6562 -3.19133 36.6553
30.2187 -3.19163 1.41298
29.6562 -2.72426 32.8913
30.2187 -2.72453 8.36829
30.7813 -5.9943 5.2768
31.3438 -5.99372 45.5839
30.7813 -5.52718 10.758
31.3438 -5.52665 49.3492
31.9063 -5.99257 1.93043
32.4688 -5.99083 3.0349
31.9063 -5.52559 1.36589
32.4688 -5.52399 1.91566
30.7813 -5.06007 13.4776
31.3438 -5.05958 46.9645
30.7813 -4.59296 8.2272
31.3438 -4.59252 36.2258
31.9063 -5.05861 1.58242
32.4688 -5.05715 2.82398
31.9063 -4.59163 2.07814
32.4688 -4.5903 2.90013
33.0313 -5.98853 56.3966
33.5938 -5.98564 951.697
33.0313 -5.52186 47.0917
33.5938 -5.5192 680.63
34.1563 -5.98218 11.7596
34.7188 -5.97814 2295.83
34.1563 -5.51601 10.0129
34.7188 -5.51228 2322.79
33.0313 -5.0552 47.1823
33.5938 -5.05276 711.045
33.0313 -4.58853 58.6746
33.5938 -4.58632 838.8
34.1563 -5.04983 8.33247
34.7188 -5.04642 2216.32
34.1563 -4.58366 11.6369
34.7188 -4.58056 1730.68
30.7813 -4.12585 7.52598
31.3438 -4.12545 37.2236
30.7813 -3.65874 7.49736
31.3438 -3.65839 33.4868
31.9063 -4.12466 2.82962
32.4688 -4.12346 3.36854
31.9063 -3.65768 2.90488
32.4688 -3.65662 3.39833
30.7813 -3.19163 7.2887
31.3438 -3.19133 34.3137
30.7813 -2.72453 9.15603
31.3438 -2.72426 32.2087
31.9063 -3.19071 4.22545
32.4688 -3.18978 4.64983
31.9063 -2.72374 5.99702
32.4688 -2.72295 6.07818
33.0313 -4.12187 73.9736
33.5938 -4.11988 1598.12
33.0313 -3.65521 79.867
33.5938 -3.65344 2223.4
34.1563 -4.11749 15.6488
34.7188 -4.11471 2301.37
34.1563 -3.65132 23.717
34.7188 -3.64885 4223.55
33.0313 -3.18855 99.0049
33.5938 -3.18701 577.476
33.0313 -2.72189 146.63
33.5938 -2.72057 1190.91
34.1563 -3.18516 41.8062
34.7188 -3.183 5551.02
34.1563 -2.71899 65.9868
34.7188 -2.71715 2412.09
26.2812 -2.25132 1822.92
26.8437 -2.25285 77.447
26.2812 -1.78552 4147.51
26.8437 -1.78674 33.0378
27.4062 -2.25416 910.718
27.9687 -2.25526 146.983
27.4062 -1.78778 584.841
27.9687 -1.78864 110.025
26.2812 -1.31973 3624.26
26.8437 -1.32062 24.3618
26.2812 -0.853928 2549.87
26.8437 -0.854509 13.1794
27.4062 -1.32139 2086.87
27.9687 -1.32203 83.4087
27.4062 -0.855006 2146.82
27.9687 -0.855421 75.8931
28.5312 -2.25613 5.16357
29.0937 -2.25679 5.7099
28.5312 -1.78934 4.34064
29.0937 -1.78986 4.04582
29.6562 -2.25722 32.0456
30.2187 -2.25744 13.3649
29.6562 -1.7902 32.7186
30.2187 -1.79038 6.09443
28.5312 -1.32254 3.37728
29.0937 -1.32293 3.14265
28.5312 -0.855752 3.71015
29.0937 -0.856001 2.87346
29.6562 -1.32319 36.4533
30.2187 -1.32331 4.9308
29.6562 -0.856167 35.1491
30.2187 -0.856249 5.71704
26.2812 -0.388132 1806.34
26.8437 -0.388396 19.0095
26.2812 0.0776645 1872.53
26.8437 0.0777176 3.83155
27.4062 -0.388622 995.519
27.9687 -0.38881 51.9828
27.4062 0.0777632 646.57
27.9687 0.0778012 59.5473
26.2812 0.543461 1950.04
26.8437 0.543831 10.5099
26.2812 1.00926 1656.36
26.8437 1.00994 12.8545
27.4062 0.544148 772.251
27.9687 0.544412 57.3106
27.4062 1.01053 1199.65
27.9687 1.01102 62.9084
28.5312 -0.38896 3.17181
29.0937 -0.389073 2.24712
28.5312 0.0778317 3.01429
29.0937 0.0778547 1.65372
29.6562 -0.389148 36.7499
30.2187 -0.389186 8.07478
29.6562 0.0778701 42.9645
30.2187 0.077878 10.7167
28.5312 0.544624 2.61939
29.0937 0.544783 1.98838
28.5312 1.01142 3.135
29.0937 1.01171 2.22538
29.6562 0.544889 41.3961
30.2187 0.544942 11.0901
29.6562 1.01191 38.0497
30.2187 1.01201 7.99589
30.7813 -2.25744 7.6467
31.3438 -2.25722 32.5691
30.7813 -1.79038 7.71783
31.3438 -1.7902 36.5115
31.9063 -2.25679 5.92854
32.4688 -2.25613 6.5931
31.9063 -1.78986 4.05657
32.4688 -1.78934 3.60308
30.7813 -1.32331 7.48072
31.3438 -1.32319 35.4067
30.7813 -0.856249 7.95294
31.3438 -0.856167 39.92
31.9063 -1.32293 3.11479
32.4688 -1.32254 3.83799
31.9063 -0.856001 2.68731
32.4688 -0.855752 3.12094
33.0313 -2.25526 162.906
33.5938 -2.25416 1417.05
33.0313 -1.78864 99.227
33.5938 -1.78778 615.368
34.1563 -2.25285 58.0999
34.7188 -2.25132 2485.83
34.1563 -1.78674 40.6831
34.7188 -1.78552 9214.35
33.0313 -1.32203 98.7664
33.5938 -1.32139 2185.17
33.0313 -0.855421 69.4795
33.5938 -0.855006 2413.2
34.1563 -1.32062 16.6198
34.7188 -1.31973 3412.31
34.1563 -0.854509 14.6634
34.7188 -0.853928 2231.32
30.7813 -0.389186 8.09616
31.3438 -0.389148 40.1388
30.7813 0.077878 11.3751
31.3438 0.0778701 45.3258
31.9063 -0.389073 2.05744
32.4688 -0.38896 2.90444
31.9063 0.0778547 1.48746
32.4688 0.0778317 2.78417
30.7813 0.544942 10.8015
31.3438 0.544889 45.5029
30.7813 1.01201 7.3037
31.3438 1.01191 41.9341
31.9063 0.544783 1.79481
32.4688 0.544624 3.0801
31.9063 1.01171 2.45855
32.4688 1.01142 3.34171
33.0313 -0.38881 60.1146
33.5938 -0.388622 936.236
33.0313 0.0778012 50.7455
33.5938 0.0777632 583.247
34.1563 -0.388396 20.5777
34.7188 -0.388132 2034.77
34.1563 0.0777176 8.09647
34.7188 0.0776645 1693.76
33.0313 0.544412 47.8291
33.5938 0.544148 629.765
33.0313 1.01102 48.7913
33.5938 1.01053 1356.75
34.1563 0.543831 14.6801
34.7188 0.543461 1564.36
34.1563 1.00994 18.214
34.7188 1.00926 2008.41
26.2812 1.47505 1802.58
26.8437 1.47606 17.6889
26.2812 1.94085 1964.34
26.8437 1.94217 7.96748
27.4062 1.47692 1498.42
27.9687 1.47763 60.258
27.4062 1.9433 674.267
27.9687 1.94424 56.4818
26.2812 2.40665 1771.12
26.8437 2.40828 9.33197
26.2812 2.87245 1602.28
26.8437 2.8744 7.5772
27.4062 2.40968 692.406
27.9687 2.41085 46.8691
27.4062 2.87607 837.507
27.9687 2.87746 51.6261
28.5312 1.47821 3.21798
29.0937 1.47864 2.23945
28.5312 1.94499 3.30459
29.0937 1.94556 1.68348
29.6562 1.47892 39.9453
30.2187 1.47907 7.59225
29.6562 1.94594 46.6526
30.2187 1.94612 12.1148
28.5312 2.41178 3.25776
29.0937 2.41248 1.09958
28.5312 2.87857 3.36045
29.0937 2.87941 1.4985
29.6562 2.41295 47.3956
30.2187 2.41318 13.9452
29.6562 2.87996 45.6303
30.2187 2.88024 9.47724
26.2812 3.33825 2227.83
26.8437 3.34051 21.6893
26.2812 3.80405 3266
26.8437 3.80663 6.40661
27.4062 3.34245 1880.77
27.9687 3.34407 53.2563
27.4062 3.80884 2928.69
27.9687 3.81068 71.0912
26.2812 4.26985 3976.84
26.8437 4.27274 61.5186
26.2812 4.73566 1603.74
26.8437 4.73886 194.649
27.4062 4.27522 920.054
27.9687 4.27729 25.1466
27.4062 4.74161 384.914
27.9687 4.7439 351.746
28.5312 3.34536 4.39668
29.0937 3.34633 1.02799
28.5312 3.81215 3.42354
29.0937 3.81326 1.32505
29.6562 3.34698 41.351
30.2187 3.3473 8.31728
29.6562 3.81399 50.9751
30.2187 3.81436 14.2365
28.5312 4.27894 7.90428
29.0937 4.28018 0.974776
28.5312 4.74574 1.6402
29.0937 4.74711 19.7925
29.6562 4.28101 47.9748
30.2187 4.28142 4.61946
29.6562 4.74803 3.96145
30.2187 4.74849 37.9196
30.7813 1.47907 10.7763
31.3438 1.47892 39.7481
30.7813 1.94612 11.1844
31.3438 1.94594 44.1554
31.9063 1.47864 2.20455
32.4688 1.47821 3.19426
31.9063 1.94556 1.50692
32.4688 1.94499 2.66527
30.7813 2.41318 12.5359
31.3438 2.41295 46.2405
30.7813 2.88024 9.72781
31.3438 2.87996 46.5065
31.9063 2.41248 1.05035
32.4688 2.41178 2.93886
31.9063 2.87941 1.50964
32.4688 2.87857 3.16767
33.0313 1.47763 60.4925
33.5938 1.47692 855.101
33.0313 1.94424 43.9827
33.5938 1.9433 608.078
34.1563 1.47606 21.7982
34.7188 1.47505 1932.44
34.1563 1.94217 10.4957
34.7188 1.94085 1496.54
33.0313 2.41085 47.0423
33.5938 2.40968 771.726
33.0313 2.87746 51.821
33.5938 2.87607 737.827
34.1563 2.40828 6.89513
34.7188 2.40665 1726.72
34.1563 2.8744 6.2157
34.7188 2.87245 1868.9
30.7813 3.3473 9.56043
31.3438 3.34698 46.9495
30.7813 3.81436 9.80824
31.3438 3.81399 56.0055
31.9063 3.34633 0.847383
32.4688 3.34536 3.78381
31.9063 3.81326 1.2923
32.4688 3.81215 3.39253
30.7813 4.28142 2.01908
31.3438 4.28101 59.4009
30.7813 4.74849 42.1944
31.3438 4.74803 2.91142
31.9063 4.28018 0.943505
32.4688 4.27894 7.5075
31.9063 4.74711 19.7522
32.4688 4.74574 1.7568
33.0313 3.34407 45.7818
33.5938 3.34245 1799.17
33.0313 3.81068 76.2923
33.5938 3.80884 2747.72
34.1563 3.34051 21.0548
34.7188 3.33825 2473.14
34.1563 3.80663 5.95282
34.7188 3.80405 4482.81
33.0313 4.27729 24.4239
33.5938 4.27522 1525.93
33.0313 4.7439 351.45
33.5938 4.74161 773.415
34.1563 4.27274 54.5187
34.7188 4.26985 5260.91
34.1563 4.73886 134.753
34.7188 4.73566 2323.74
