26.5624 -9.47545 125
27.6874 -9.4863 51.9488
26.5625 -8.54338 112.144
27.6874 -8.55318 18.6504
28.8124 -9.49352 66.1536
29.9375 -9.49714 34.5594
28.8124 -8.55972 24.7809
29.9375 -8.56298 7.35696
26.5625 -7.61132 99.025
27.6874 -7.62008 9.63666
26.5625 -6.67927 95.2559
27.6875 -6.68698 8.35596
28.8124 -7.62592 10.8529
29.9375 -7.62883 4.63629
28.8125 -6.69212 8.67321
29.9375 -6.69469 1.08434
31.0625 -9.49714 76.1838
32.1876 -9.49352 86.0253
31.0625 -8.56298 29.3765
32.1876 -8.55972 37.1861
33.3126 -9.4863 62.1654
34.4376 -9.47545 141.648
33.3126 -8.55318 18.686
34.4375 -8.54338 100.957
31.0625 -7.62883 13.0241
32.1876 -7.62592 17.3522
31.0625 -6.69469 5.71083
32.1875 -6.69212 10.2626
33.3126 -7.62008 9.36792
34.4375 -7.61132 95.2581
33.3125 -6.68698 7.2143
34.4375 -6.67927 96.2267
26.5625 -5.74722 95.3702
27.6875 -5.75388 8.1701
26.5625 -4.81518 93.5273
27.6875 -4.82076 7.08569
28.8125 -5.75831 8.25136
29.9375 -5.76053 0.218237
28.8125 -4.82448 6.97335
29.9375 -4.82634 0.0499516
26.5625 -3.88314 95.6075
27.6875 -3.88765 5.83401
26.5625 -2.95111 99.4139
27.6875 -2.95454 5.11753
28.8125 -3.89065 6.65848
29.9375 -3.89215 2.22927
28.8125 -2.95683 5.65847
29.9375 -2.95797 2.80254
31.0625 -5.76053 3.62291
32.1875 -5.75831 8.36551
31.0625 -4.82634 3.79656
32.1875 -4.82448 6.88313
33.3125 -5.75388 6.68737
34.4375 -5.74722 95.9565
33.3125 -4.82076 5.87677
34.4375 -4.81518 96.0485
31.0625 -3.89215 1.18994
32.1875 -3.89065 5.75419
31.0625 -2.95797 1.92185
32.1875 -2.95683 4.92657
33.3125 -3.88765 4.74221
34.4375 -3.88314 97.5803
33.3125 -2.95454 4.28026
34.4375 -2.95111 100.524
26.5625 -2.01913 100.465
27.6875 -2.02148 4.94243
26.5625 -1.08721 96.7904
27.6875 -1.08848 5.1545
28.8125 -2.02305 5.44588
29.9375 -2.02384 2.49089
28.8125 -1.08932 5.87728
29.9375 -1.08974 2.18268
26.5625 -0.155288 93.9903
27.6875 -0.155469 5.67352
26.5625 0.776633 93.8211
27.6875 0.777539 5.85874
28.8125 -0.155589 5.8547
29.9375 -0.155648 1.61657
28.8125 0.778143 6.35177
29.9375 0.778445 1.22058
31.0625 -2.02384 2.26978
32.1875 -2.02305 4.71199
31.0625 -1.08974 1.57665
32.1875 -1.08932 5.74436
33.3125 -2.02148 4.1326
34.4375 -2.01913 99.8732
33.3125 -1.08848 4.77235
34.4375 -1.08721 96.2324
31.0625 -0.155648 2.12078
32.1875 -0.155589 6.24529
31.0625 0.778445 3.28446
32.1875 0.778143 6.96856
33.3125 -0.155469 5.59464
34.4375 -0.155288 93.7655
33.3125 0.777539 6.06846
34.4375 0.776633 93.8005
26.5625 1.70855 93.6493
27.6875 1.71054 5.65223
26.5625 2.64048 95.5104
27.6875 2.64355 7.1564
28.8125 1.71187 6.86977
29.9375 1.71253 0.0799585
28.8125 2.64559 10.378
29.9375 2.64661 2.73713
26.5625 3.5724 107.774
27.6875 3.57655 16.4033
26.5625 4.50433 132.658
27.6875 4.50956 53.9131
28.8125 3.57932 24.3059
29.9375 3.5807 13.2844
28.8125 4.51305 67.3984
29.9375 4.51479 46.2765
31.0625 1.71253 4.30384
32.1875 1.71187 8.17261
31.0625 2.64661 9.70636
32.1875 2.64559 13.0125
33.3125 1.71054 6.15651
34.4375 1.70855 93.6253
33.3125 2.64355 7.75016
34.4375 2.64048 93.5532
31.0625 3.5807 26.2741
32.1875 3.57932 29.567
31.0625 4.51479 67.7686
32.1875 4.51305 76.1203
33.3125 3.57655 16.644
34.4375 3.5724 101.762
33.3125 4.50956 58.5376
34.4375 4.50433 138.889
