26.2812 -9.70512 843.999
26.8437 -9.7116 1271.68
26.2812 -9.23924 384.614
26.8437 -9.24541 120.664
27.4062 -9.71715 575.984
27.9686 -9.72177 287.539
27.4062 -9.2507 26.8674
27.9687 -9.25511 101.945
26.2812 -8.77336 315.008
26.8437 -8.77923 573.048
26.2812 -8.30748 311.783
26.8437 -8.31305 362.188
27.4062 -8.78426 587.424
27.9687 -8.78845 226.281
27.4062 -8.31782 457.41
27.9687 -8.32179 48.7143
28.5312 -9.72548 56.3122
29.0937 -9.72825 22.4885
28.5312 -9.25864 168.093
29.0937 -9.26128 6.54683
29.6562 -9.7301 12.1013
30.2187 -9.73103 66.0903
29.6562 -9.26305 11.2225
30.2187 -9.26393 3.61737
28.5312 -8.7918 211.881
29.0937 -8.79432 11.3573
28.5312 -8.32497 131.253
29.0937 -8.32736 0.145163
29.6562 -8.79599 2.86545
30.2187 -8.79683 20.4123
29.6562 -8.32895 12.7393
30.2187 -8.32974 0.565335
26.2812 -7.84161 15.9568
26.8437 -7.84687 261.088
26.2812 -7.37574 36.0354
26.8437 -7.38069 151.891
27.4062 -7.85138 228.122
27.9687 -7.85514 46.0049
27.4062 -7.38494 87.5037
27.9687 -7.38848 18.4597
26.2812 -6.90987 1387.67
26.8437 -6.91452 236.569
26.2812 -6.44401 158.597
26.8437 -6.44835 55.0797
27.4062 -6.91851 825.065
27.9687 -6.92183 104.747
27.4062 -6.45208 91.6965
27.9687 -6.45518 37.1287
28.5312 -7.85815 36.0518
29.0937 -7.8604 13.4935
28.5312 -7.39132 28.9977
29.0937 -7.39344 0.322423
29.6562 -7.8619 4.01556
30.2187 -7.86265 9.37509
29.6562 -7.39485 4.60761
30.2187 -7.39556 1.53788
28.5312 -6.92449 14.3768
29.0937 -6.92648 155.801
28.5312 -6.45767 23.651
29.0937 -6.45953 9.55186
29.6562 -6.92781 40.2252
30.2187 -6.92848 21.4257
29.6562 -6.46077 12.3519
30.2187 -6.46139 3.31993
30.7813 -9.73103 65.8513
31.3438 -9.7301 12.4345
30.7813 -9.26393 3.80141
31.3438 -9.26305 10.1381
31.9063 -9.72825 21.4212
32.4688 -9.72548 56.2175
31.9063 -9.26128 6.10688
32.4688 -9.25864 164.85
30.7813 -8.79683 19.2079
31.3438 -8.79599 3.53569
30.7813 -8.32974 0.0914423
31.3438 -8.32895 12.7681
31.9063 -8.79432 11.0647
32.4688 -8.7918 199.357
31.9063 -8.32736 0.554848
32.4688 -8.32497 111.804
33.0314 -9.72177 318.428
33.5938 -9.71715 560.8
33.0313 -9.25511 120.659
33.5938 -9.2507 29.3555
34.1563 -9.7116 1291.64
34.7188 -9.70512 1015.84
34.1563 -9.24541 106.313
34.7188 -9.23924 414.645
33.0313 -8.78845 262.562
33.5938 -8.78426 572.67
33.0313 -8.32179 41.3129
33.5938 -8.31782 464.497
34.1563 -8.77923 589.027
34.7188 -8.77336 308.774
34.1563 -8.31305 423.572
34.7188 -8.30748 286.42
30.7813 -7.86265 8.21971
31.3438 -7.8619 4.80516
30.7813 -7.39556 2.32973
31.3438 -7.39485 3.77288
31.9063 -7.8604 12.1907
32.4688 -7.85815 11.2664
31.9063 -7.39344 1.24099
32.4688 -7.39132 50.7043
30.7813 -6.92848 24.1017
31.3438 -6.92781 3.65468
30.7813 -6.46139 2.26733
31.3438 -6.46077 17.1154
31.9063 -6.92648 311.358
32.4688 -6.92449 109.341
31.9063 -6.45953 16.413
32.4688 -6.45767 11.9897
33.0313 -7.85514 42.7375
33.5938 -7.85138 217.815
33.0313 -7.38848 124.602
33.5938 -7.38494 52.854
34.1563 -7.84687 255.065
34.7188 -7.84161 18.2295
34.1563 -7.38069 161.183
34.7188 -7.37574 33.5922
33.0313 -6.92183 122.754
33.5938 -6.91851 67.4326
33.0313 -6.45518 13.3201
33.5938 -6.45208 28.5245
34.1563 -6.91452 291.339
34.7188 -6.90987 646.063
34.1563 -6.44835 80.5761
34.7188 -6.44401 150.813
26.2812 -5.97814 70.3315
26.8437 -5.98218 2.80535
26.2812 -5.51228 84.5723
26.8437 -5.51601 15.7266
27.4062 -5.98564 10.1689
27.9687 -5.98853 14.9263
27.4062 -5.5192 7.62587
27.9687 -5.52186 5.4156
26.2812 -5.04642 88.8821
26.8437 -5.04983 19.4141
26.2812 -4.58056 291.381
26.8437 -4.58366 0.296387
27.4062 -5.05276 36.5134
27.9687 -5.0552 35.6295
27.4062 -4.58632 90.7891
27.9687 -4.58853 55.7749
28.5312 -5.99083 7.56957
29.0937 -5.99257 1.44463
28.5312 -5.52399 16.6301
29.0937 -5.52559 1.16519
29.6562 -5.99372 0.226335
30.2187 -5.9943 2.81842
29.6562 -5.52665 4.41878
30.2187 -5.52718 2.211
28.5312 -5.05715 60.5793
29.0937 -5.05861 2.15538
28.5312 -4.5903 30.9705
29.0937 -4.59163 2.56323
29.6562 -5.05958 39.1086
30.2187 -5.06007 17.3928
29.6562 -4.59252 4.11013
30.2187 -4.59296 3.32563
26.2812 -4.11471 143.021
26.8437 -4.11749 14.2154
26.2812 -3.64885 1110.99
26.8437 -3.65132 21.8166
27.4062 -4.11988 3.74509
27.9687 -4.12187 104.986
27.4062 -3.65344 41.9422
27.9687 -3.65521 76.1461
26.2812 -3.183 142.861
26.8437 -3.18516 21.6361
26.2812 -2.71715 49.4407
26.8437 -2.71899 7.46009
27.4062 -3.18701 1.18797
27.9687 -3.18855 17.2907
27.4062 -2.72057 45.8028
27.9687 -2.72189 10.7161
28.5312 -4.12346 37.7864
29.0937 -4.12466 4.79139
28.5312 -3.65662 24.5407
29.0937 -3.65768 5.29704
29.6562 -4.12545 2.43707
30.2187 -4.12585 2.19079
29.6562 -3.65839 0.911175
30.2187 -3.65874 0.506247
28.5312 -3.18978 5.11416
29.0937 -3.19071 5.549
28.5312 -2.72295 27.2787
29.0937 -2.72374 6.53737
29.6562 -3.19133 3.22202
30.2187 -3.19163 6.12655
29.6562 -2.72426 0.655973
30.2187 -2.72453 2.8547
30.7813 -5.9943 2.07705
31.3438 -5.99372 0.996292
30.7813 -5.52718 0.648299
31.3438 -5.52665 3.83463
31.9063 -5.99257 1.20173
32.4688 -5.99083 16.7087
31.9063 -5.52559 0.527294
32.4688 -5.52399 24.5236
30.7813 -5.06007 66.8151
31.3438 -5.05958 46.6221
30.7813 -4.59296 0.210117
31.3438 -4.59252 2.0154
31.9063 -5.05861 10.017
32.4688 -5.05715 51.4297
31.9063 -4.59163 3.21379
32.4688 -4.5903 62.7643
33.0313 -5.98853 3.71993
33.5938 -5.98564 22.4837
33.0313 -5.52186 29.0205
33.5938 -5.5192 4.37534
34.1563 -5.98218 31.5016
34.7188 -5.97814 63.6117
34.1563 -5.51601 29.2475
34.7188 -5.51228 80.4997
33.0313 -5.0552 61.8268
33.5938 -5.05276 38.36
33.0313 -4.58853 32.201
33.5938 -4.58632 81.9487
34.1563 -5.04983 82.3139
34.7188 -5.04642 64.8736
34.1563 -4.58366 21.5674
34.7188 -4.58056 269.85
30.7813 -4.12585 2.06957
31.3438 -4.12545 1.60583
30.7813 -3.65874 1.33841
31.3438 -3.65839 2.74514
31.9063 -4.12466 1.14151
32.4688 -4.12346 29.3699
31.9063 -3.65768 8.17394
32.4688 -3.65662 8.2601
30.7813 -3.19163 5.19344
31.3438 -3.19133 2.5835
30.7813 -2.72453 2.95662
31.3438 -2.72426 0.884514
31.9063 -3.19071 5.9474
32.4688 -3.18978 11.1165
31.9063 -2.72374 8.66595
32.4688 -2.72295 23.3373
33.0313 -4.12187 18.5023
33.5938 -4.11988 165.072
33.0313 -3.65521 43.3879
33.5938 -3.65344 20.5133
34.1563 -4.11749 36.4341
34.7188 -4.11471 187.835
34.1563 -3.65132 36.5155
34.7188 -3.64885 1765.36
33.0313 -3.18855 12.2968
33.5938 -3.18701 10.6112
33.0313 -2.72189 4.17712
33.5938 -2.72057 15.5355
34.1563 -3.18516 48.6154
34.7188 -3.183 129.362
34.1563 -2.71899 27.5473
34.7188 -2.71715 41.8736
26.2812 -2.25132 46.2893
26.8437 -2.25285 39.8502
26.2812 -1.78552 117.974
26.8437 -1.78674 29.3367
27.4062 -2.25416 18.0586
27.9687 -2.25526 12.8847
27.4062 -1.78778 20.7619
27.9687 -1.78864 53.0326
26.2812 -1.31973 954.718
26.8437 -1.32062 19.1411
26.2812 -0.853928 114.562
26.8437 -0.854509 16.2185
27.4062 -1.32139 1.97779
27.9687 -1.32203 207.45
27.4062 -0.855006 35.288
27.9687 -0.855421 223.315
28.5312 -2.25613 16.0815
29.0937 -2.25679 5.03384
28.5312 -1.78934 30.5863
29.0937 -1.78986 3.39817
29.6562 -2.25722 3.04926
30.2187 -2.25744 1.52764
29.6562 -1.7902 2.80255
30.2187 -1.79038 1.97284
28.5312 -1.32254 0.183184
29.0937 -1.32293 4.02497
28.5312 -0.855752 42.9851
29.0937 -0.856001 1.72214
29.6562 -1.32319 4.61419
30.2187 -1.32331 3.57022
29.6562 -0.856167 3.38531
30.2187 -0.856249 4.08315
26.2812 -0.388132 174.739
26.8437 -0.388396 47.0506
26.2812 0.0776645 22.4557
26.8437 0.0777176 70.3704
27.4062 -0.388622 13.4837
27.9687 -0.38881 17.4174
27.4062 0.0777632 87.2689
27.9687 0.0778012 115.93
26.2812 0.543461 114.877
26.8437 0.543831 30.7782
26.2812 1.00926 102.364
26.8437 1.00994 19.4782
27.4062 0.544148 35.6503
27.9687 0.544412 158.418
27.4062 1.01053 59.8829
27.9687 1.01102 8.55268
28.5312 -0.38896 17.151
29.0937 -0.389073 2.52715
28.5312 0.0778317 1468.96
29.0937 0.0778547 2.89674
29.6562 -0.389148 2.02546
30.2187 -0.389186 1.23286
29.6562 0.0778701 11.0367
30.2187 0.077878 9.68044
28.5312 0.544624 20.5107
29.0937 0.544783 0.620351
28.5312 1.01142 14.0532
29.0937 1.01171 3.97184
29.6562 0.544889 1.59316
30.2187 0.544942 3.95796
29.6562 1.01191 3.83062
30.2187 1.01201 6.96833
30.7813 -2.25744 0.972487
31.3438 -2.25722 1.56382
30.7813 -1.79038 3.55604
31.3438 -1.7902 2.34246
31.9063 -2.25679 7.12212
32.4688 -2.25613 14.3899
31.9063 -1.78986 5.04867
32.4688 -1.78934 13.312
30.7813 -1.32331 1.81354
31.3438 -1.32319 2.95747
30.7813 -0.856249 5.04434
31.3438 -0.856167 2.51609
31.9063 -1.32293 2.82569
32.4688 -1.32254 22.4879
31.9063 -0.856001 1.36103
32.4688 -0.855752 280.085
33.0313 -2.25526 9.51307
33.5938 -2.25416 15.106
33.0313 -1.78864 27.7528
33.5938 -1.78778 21.1255
34.1563 -2.25285 30.0301
34.7188 -2.25132 46.1245
34.1563 -1.78674 43.9079
34.7188 -1.78552 103.278
33.0313 -1.32203 199.438
33.5938 -1.32139 35.9051
33.0313 -0.855421 341.583
33.5938 -0.855006 106.934
34.1563 -1.32062 1.83798
34.7188 -1.31973 2320.06
34.1563 -0.854509 67.7123
34.7188 -0.853928 96.5888
30.7813 -0.389186 0.233905
31.3438 -0.389148 1.02821
30.7813 0.077878 8.4478
31.3438 0.0778701 11.3381
31.9063 -0.389073 1.3594
32.4688 -0.38896 3.5946
31.9063 0.0778547 4.67368
32.4688 0.0778317 519.648
30.7813 0.544942 1.19608
31.3438 0.544889 2.58664
30.7813 1.01201 8.87501
31.3438 1.01191 1.7271
31.9063 0.544783 1.23591
32.4688 0.544624 46.0787
31.9063 1.01171 3.67328
32.4688 1.01142 46.2239
33.0313 -0.38881 17.9145
33.5938 -0.388622 15.9028
33.0313 0.0778012 126.988
33.5938 0.0777632 50.6392
34.1563 -0.388396 19.6022
34.7188 -0.388132 167.991
34.1563 0.0777176 24.1856
34.7188 0.0776645 24.8266
33.0313 0.544412 26.8221
33.5938 0.544148 39.4534
33.0313 1.01102 64.744
33.5938 1.01053 23.1417
34.1563 0.543831 72.8256
34.7188 0.543461 118.641
34.1563 1.00994 34.5992
34.7188 1.00926 114.171
26.2812 1.47505 86.4182
26.8437 1.47606 54.5394
26.2812 1.94085 170.136
26.8437 1.94217 88.1666
27.4062 1.47692 60.1565
27.9687 1.47763 2.27256
27.4062 1.9433 51.877
27.9687 1.94424 142.029
26.2812 2.40665 114.661
26.8437 2.40828 363.194
26.2812 2.87245 49.2915
26.8437 2.8744 325.136
27.4062 2.40968 92.7843
27.9687 2.41085 367.725
27.4062 2.87607 465.522
27.9687 2.87746 131.637
28.5312 1.47821 18.1185
29.0937 1.47864 1.03732
28.5312 1.94499 2.98703
29.0937 1.94556 4.23534
29.6562 1.47892 5.8351
30.2187 1.47907 0.486946
29.6562 1.94594 5.42923
30.2187 1.94612 10.408
28.5312 2.41178 61.1096
29.0937 2.41248 8.34957
28.5312 2.87857 25.7284
29.0937 2.87941 7.56015
29.6562 2.41295 19.7217
30.2187 2.41318 12.7957
29.6562 2.87996 0.536237
30.2187 2.88024 15.0797
26.2812 3.33825 597.63
26.8437 3.34051 523.401
26.2812 3.80405 839.343
26.8437 3.80663 903.023
27.4062 3.34245 1708.95
27.9687 3.34407 344.132
27.4062 3.80884 744.126
27.9687 3.81068 47496.8
26.2812 4.26985 392.177
26.8437 4.27274 223.863
26.2812 4.73566 947.859
26.8437 4.73886 1550.4
27.4062 4.27522 52.6658
27.9687 4.27729 93.9786
27.4062 4.74161 800.283
27.9687 4.7439 464.241
28.5312 3.34536 175.259
29.0937 3.34633 8.71878
28.5312 3.81215 276.124
29.0937 3.81326 11.1359
29.6562 3.34698 30.546
30.2187 3.3473 6.09495
29.6562 3.81399 0.714552
30.2187 3.81436 30.4582
28.5312 4.27894 248.992
29.0937 4.28018 11.0912
28.5312 4.74574 41.895
29.0937 4.74711 19.1055
29.6562 4.28101 17.0822
30.2187 4.28142 3.36877
29.6562 4.74803 7.86988
30.2187 4.74849 72.9651
30.7813 1.47907 2.78545
31.3438 1.47892 8.42211
30.7813 1.94612 10.4289
31.3438 1.94594 5.55587
31.9063 1.47864 0.693678
32.4688 1.47821 15.6147
31.9063 1.94556 5.95402
32.4688 1.94499 109.439
30.7813 2.41318 10.7482
31.3438 2.41295 20.6396
30.7813 2.88024 14.1199
31.3438 2.87996 0.458426
31.9063 2.41248 8.81664
32.4688 2.41178 117.853
31.9063 2.87941 5.54671
32.4688 2.87857 13.763
33.0313 1.47763 1.08537
33.5938 1.47692 37.013
33.0313 1.94424 162.434
33.5938 1.9433 57.6804
34.1563 1.47606 45.9201
34.7188 1.47505 96.763
34.1563 1.94217 136.956
34.7188 1.94085 141.59
33.0313 2.41085 405.878
33.5938 2.40968 243.596
33.0313 2.87746 121.489
33.5938 2.87607 470.254
34.1563 2.40828 203.881
34.7188 2.40665 103.918
34.1563 2.8744 306.543
34.7188 2.87245 40.2531
30.7813 3.3473 7.06046
31.3438 3.34698 29.0493
30.7813 3.81436 30.7482
31.3438 3.81399 0.312322
31.9063 3.34633 8.31065
32.4688 3.34536 188.267
31.9063 3.81326 13.436
32.4688 3.81215 338.861
30.7813 4.28142 4.5109
31.3438 4.28101 16.7483
30.7813 4.74849 72.4044
31.3438 4.74803 7.87613
31.9063 4.28018 10.9765
32.4688 4.27894 255.134
31.9063 4.74711 19.6523
32.4688 4.74574 35.2305
33.0313 3.34407 2845.52
33.5938 3.34245 887.957
33.0313 3.81068 1193.91
33.5938 3.80884 790.623
34.1563 3.34051 518.782
34.7188 3.33825 598.233
34.1563 3.80663 1037.24
34.7188 3.80405 709.988
33.0313 4.27729 111.106
33.5938 4.27522 51.3812
33.0313 4.7439 526.092
33.5938 4.74161 804.337
34.1563 4.27274 234.195
34.7188 4.26985 438.999
34.1563 4.73886 1567.21
34.7188 4.73566 982.136
