26.5624 -9.47545 137.233
27.6874 -9.4863 59.2487
26.5625 -8.54338 104.037
27.6874 -8.55318 18.6432
28.8124 -9.49352 79.8889
29.9375 -9.49714 62.39
28.8124 -8.55972 33.3646
29.9375 -8.56298 24.5282
26.5625 -7.61132 96.2893
27.6874 -7.62008 9.37197
26.5625 -6.67927 95.9945
27.6875 -6.68698 7.57911
28.8124 -7.62592 15.3531
29.9375 -7.62883 7.48861
28.8125 -6.69212 9.81362
29.9375 -6.69469 4.78759
31.0625 -9.49714 46.3469
32.1876 -9.49352 73.0552
31.0625 -8.56298 12.129
32.1876 -8.55972 29.1199
33.3126 -9.4863 55.6633
34.4376 -9.47545 131.472
33.3126 -8.55318 18.6689
34.4375 -8.54338 107.837
31.0625 -7.62883 1.52367
32.1876 -7.62592 13.1881
31.0625 -6.69469 0.171673
32.1875 -6.69212 9.30019
33.3126 -7.62008 9.58863
34.4375 -7.61132 97.6419
33.3125 -6.68698 7.92263
34.4375 -6.67927 95.5351
26.5625 -5.74722 95.7984
27.6875 -5.75388 7.17145
26.5625 -4.81518 95.2232
27.6875 -4.82076 6.16348
28.8125 -5.75831 8.55492
29.9375 -5.76053 3.17743
28.8125 -4.82448 6.67529
29.9375 -4.82634 0.880259
26.5625 -3.88314 96.9319
27.6875 -3.88765 4.94177
26.5625 -2.95111 100.331
27.6875 -2.95454 4.48264
28.8125 -3.89065 5.98821
29.9375 -3.89215 1.8586
28.8125 -2.95683 5.11778
29.9375 -2.95797 1.85732
31.0625 -5.76053 0.825413
32.1875 -5.75831 8.11617
31.0625 -4.82634 3.23635
32.1875 -4.82448 7.18269
33.3125 -5.75388 7.60629
34.4375 -5.74722 95.5356
33.3125 -4.82076 6.72155
34.4375 -4.81518 94.4381
31.0625 -3.89215 1.52298
32.1875 -3.89065 6.35754
31.0625 -2.95797 2.85805
32.1875 -2.95683 5.39777
33.3125 -3.88765 5.54507
34.4375 -3.88314 96.3549
33.3125 -2.95454 4.83404
34.4375 -2.95111 99.7089
26.5625 -2.01913 100.095
27.6875 -2.02148 4.39461
26.5625 -1.08721 96.4756
27.6875 -1.08848 4.90861
28.8125 -2.02305 4.89061
29.9375 -2.02384 1.30623
28.8125 -1.08932 5.55968
29.9375 -1.08974 1.36864
26.5625 -0.155288 93.9395
27.6875 -0.155469 5.6401
26.5625 0.776633 93.8484
27.6875 0.777539 5.99395
28.8125 -0.155589 5.7981
29.9375 -0.155648 1.47065
28.8125 0.778143 6.67897
29.9375 0.778445 2.16462
31.0625 -2.02384 3.46653
32.1875 -2.02305 5.22503
31.0625 -1.08974 2.37142
32.1875 -1.08932 6.03159
33.3125 -2.02148 4.60635
34.4375 -2.01913 100.197
33.3125 -1.08848 4.98261
34.4375 -1.08721 96.5025
31.0625 -0.155648 2.2587
32.1875 -0.155589 6.29701
31.0625 0.778445 2.39359
32.1875 0.778143 6.66132
33.3125 -0.155469 5.62364
34.4375 -0.155288 93.8089
33.3125 0.777539 5.9487
34.4375 0.776633 93.7784
26.5625 1.70855 93.6208
27.6875 1.71054 5.95198
26.5625 2.64048 94.1571
27.6875 2.64355 7.57913
28.8125 1.71187 7.73862
29.9375 1.71253 2.51907
28.8125 2.64559 12.3275
29.9375 2.64661 7.87117
26.5625 3.5724 103.456
27.6875 3.57655 16.6615
26.5625 4.50433 137.217
27.6875 4.50956 57.2008
28.8125 3.57932 28.0193
29.9375 3.5807 21.7503
28.8125 4.51305 73.4118
29.9375 4.51479 60.3047
31.0625 1.71253 1.86903
32.1875 1.71187 7.36833
31.0625 2.64661 4.77339
32.1875 2.64559 11.224
33.3125 1.71054 5.88946
34.4375 1.70855 93.654
33.3125 2.64355 7.38033
34.4375 2.64048 94.6944
31.0625 3.5807 17.9674
32.1875 3.57932 26.1216
31.0625 4.51479 53.885
32.1875 4.51305 70.4803
33.3125 3.57655 16.4206
34.4375 3.5724 105.381
33.3125 4.50956 55.6121
34.4375 4.50433 135.075
