26.2812 -9.70512 2878.8
26.8437 -9.7116 57.0604
26.2812 -9.23924 11764.4
26.8437 -9.24541 17.4929
27.4062 -9.71715 6447.49
27.9686 -9.72177 295.148
27.4062 -9.2507 24747.2
27.9687 -9.25511 18.5013
26.2812 -8.77336 6453.49
26.8437 -8.77923 29.563
26.2812 -8.30748 3568.03
26.8437 -8.31305 9.92604
27.4062 -8.78426 1386.35
27.9687 -8.78845 52.0255
27.4062 -8.31782 881.531
27.9687 -8.32179 24.4791
28.5312 -9.72548 4.61496
29.0937 -9.72825 19.1404
28.5312 -9.25864 4.70303
29.0937 -9.26128 0.802428
29.6562 -9.7301 28.3114
30.2187 -9.73103 45.947
29.6562 -9.26305 234.01
30.2187 -9.26393 1.34315
28.5312 -8.7918 3.01555
29.0937 -8.79432 0.159519
28.5312 -8.32497 2.88519
29.0937 -8.32736 0.524257
29.6562 -8.79599 112.699
30.2187 -8.79683 2.03715
29.6562 -8.32895 85.3396
30.2187 -8.32974 8.35478
26.2812 -7.84161 2789.99
26.8437 -7.84687 2.87873
26.2812 -7.37574 3008.51
26.8437 -7.38069 8.17828
27.4062 -7.85138 530.395
27.9687 -7.85514 31.3693
27.4062 -7.38494 434.584
27.9687 -7.38848 26.6614
26.2812 -6.90987 2244.55
26.8437 -6.91452 4.21125
26.2812 -6.44401 2087.96
26.8437 -6.44835 5.0769
27.4062 -6.91851 655.746
27.9687 -6.92183 32.8818
27.4062 -6.45208 1116.46
27.9687 -6.45518 55.1625
28.5312 -7.85815 2.322
29.0937 -7.8604 1.11121
28.5312 -7.39132 1.21312
29.0937 -7.39344 1.1
29.6562 -7.8619 74.8635
30.2187 -7.86265 6.80076
29.6562 -7.39485 46.3049
30.2187 -7.39556 10.9668
28.5312 -6.92449 2.14645
29.0937 -6.92648 1.57922
28.5312 -6.45767 3.16594
29.0937 -6.45953 1.92662
29.6562 -6.92781 47.2009
30.2187 -6.92848 13.485
29.6562 -6.46077 42.9039
30.2187 -6.46139 10.3413
30.7813 -9.73103 15.2086
31.3438 -9.7301 1.16884
30.7813 -9.26393 15.338
31.3438 -9.26305 28.8783
31.9063 -9.72825 19.4394
32.4688 -9.72548 5.7207
31.9063 -9.26128 0.0830606
32.4688 -9.25864 7.50317
30.7813 -8.79683 42.433
31.3438 -8.79599 38.3926
30.7813 -8.32974 19.2351
31.3438 -8.32895 32.2951
31.9063 -8.79432 0.793548
32.4688 -8.7918 1.26786
31.9063 -8.32736 0.675227
32.4688 -8.32497 3.15106
33.0314 -9.72177 314.813
33.5938 -9.71715 45.1691
33.0313 -9.25511 3.16043
33.5938 -9.2507 600.722
34.1563 -9.7116 271.599
34.7188 -9.70512 3827.26
34.1563 -9.24541 35.5584
34.7188 -9.23924 8116.81
33.0313 -8.78845 42.4855
33.5938 -8.78426 15249.9
33.0313 -8.32179 39.4151
33.5938 -8.31782 1807.97
34.1563 -8.77923 34.1055
34.7188 -8.77336 2678.35
34.1563 -8.31305 27.7417
34.7188 -8.30748 2087.25
30.7813 -7.86265 28.7548
31.3438 -7.8619 36.9498
30.7813 -7.39556 29.6784
31.3438 -7.39485 31.7277
31.9063 -7.8604 1.39084
32.4688 -7.85815 1.98575
31.9063 -7.39344 0.961077
32.4688 -7.39132 1.99186
30.7813 -6.92848 16.8298
31.3438 -6.92781 50.2868
30.7813 -6.46139 9.25762
31.3438 -6.46077 45.0004
31.9063 -6.92648 1.3702
32.4688 -6.92449 2.35181
31.9063 -6.45953 1.83708
32.4688 -6.45767 3.11842
33.0313 -7.85514 35.6983
33.5938 -7.85138 847.759
33.0313 -7.38848 30.6485
33.5938 -7.38494 717.683
34.1563 -7.84687 6.33737
34.7188 -7.84161 1881.05
34.1563 -7.38069 5.12113
34.7188 -7.37574 1800.53
33.0313 -6.92183 38.3146
33.5938 -6.91851 566.701
33.0313 -6.45518 58.6795
33.5938 -6.45208 986.513
34.1563 -6.91452 3.43451
34.7188 -6.90987 2151.05
34.1563 -6.44835 16.6568
34.7188 -6.44401 2787.72
26.2812 -5.97814 3486.76
26.8437 -5.98218 10.536
26.2812 -5.51228 2431.36
26.8437 -5.51601 12.6395
27.4062 -5.98564 884.319
27.9687 -5.98853 66.4334
27.4062 -5.5192 516.546
27.9687 -5.52186 50.5219
26.2812 -5.04642 1884.93
26.8437 -5.04983 5.87501
26.2812 -4.58056 2002.71
26.8437 -4.58366 11.8365
27.4062 -5.05276 637.348
27.9687 -5.0552 47.8113
27.4062 -4.58632 1023.03
27.9687 -4.58853 54.9629
28.5312 -5.99083 3.20622
29.0937 -5.99257 2.28066
28.5312 -5.52399 2.58591
29.0937 -5.52559 1.58809
29.6562 -5.99372 52.9345
30.2187 -5.9943 6.89115
29.6562 -5.52665 59.2219
30.2187 -5.52718 9.2175
28.5312 -5.05715 2.82628
29.0937 -5.05861 1.57269
28.5312 -4.5903 3.24644
29.0937 -4.59163 1.84652
29.6562 -5.05958 45.6967
30.2187 -5.06007 10.4964
29.6562 -4.59252 37.2859
30.2187 -4.59296 9.11037
26.2812 -4.11471 2002.68
26.8437 -4.11749 18.7318
26.2812 -3.64885 3690.4
26.8437 -3.65132 15.3695
27.4062 -4.11988 1514.13
27.9687 -4.12187 64.519
27.4062 -3.65344 1384.83
27.9687 -3.65521 90.1991
26.2812 -3.183 5506.1
26.8437 -3.18516 34.8899
26.2812 -2.71715 1766.68
26.8437 -2.71899 31.0877
27.4062 -3.18701 510.834
27.9687 -3.18855 106.25
27.4062 -2.72057 996.285
27.9687 -2.72189 156.133
28.5312 -4.12346 3.42464
29.0937 -4.12466 2.41293
28.5312 -3.65662 3.46676
29.0937 -3.65768 2.93925
29.6562 -4.12545 35.528
30.2187 -4.12585 6.35396
29.6562 -3.65839 33.6596
30.2187 -3.65874 8.1594
28.5312 -3.18978 4.36028
29.0937 -3.19071 4.10739
28.5312 -2.72295 5.43364
29.0937 -2.72374 5.86718
29.6562 -3.19133 30.3242
30.2187 -3.19163 2.78366
29.6562 -2.72426 30.2451
30.2187 -2.72453 9.37127
30.7813 -5.9943 7.44932
31.3438 -5.99372 34.4492
30.7813 -5.52718 13.6107
31.3438 -5.52665 37.3095
31.9063 -5.99257 1.86867
32.4688 -5.99083 3.08487
31.9063 -5.52559 1.34944
32.4688 -5.52399 1.86689
30.7813 -5.06007 14.3513
31.3438 -5.05958 46.9719
30.7813 -4.59296 7.60514
31.3438 -4.59252 40.1261
31.9063 -5.05861 1.59845
32.4688 -5.05715 2.78378
31.9063 -4.59163 2.11291
32.4688 -4.5903 2.9493
33.0313 -5.98853 52.93
33.5938 -5.98564 1514.56
33.0313 -5.52186 44.9467
33.5938 -5.5192 907.266
34.1563 -5.98218 9.37146
34.7188 -5.97814 1831.76
34.1563 -5.51601 10.7017
34.7188 -5.51228 1997.77
33.0313 -5.0552 47.2427
33.5938 -5.05276 652.544
33.0313 -4.58853 60.4555
33.5938 -4.58632 805.635
34.1563 -5.04983 7.54635
34.7188 -5.04642 2356.54
34.1563 -4.58366 12.1901
34.7188 -4.58056 1838.31
30.7813 -4.12585 7.22462
31.3438 -4.12545 40.2154
30.7813 -3.65874 6.82061
31.3438 -3.65839 36.7996
31.9063 -4.12466 2.85342
32.4688 -4.12346 3.38447
31.9063 -3.65768 3.00149
32.4688 -3.65662 3.39482
30.7813 -3.19163 5.54295
31.3438 -3.19133 41.6116
30.7813 -2.72453 8.21933
31.3438 -2.72426 35.1715
31.9063 -3.19071 4.18969
32.4688 -3.18978 4.63722
31.9063 -2.72374 5.96468
32.4688 -2.72295 6.02536
33.0313 -4.12187 73.3879
33.5938 -4.11988 1519.11
33.0313 -3.65521 77.8805
33.5938 -3.65344 3457.81
34.1563 -4.11749 16.7877
34.7188 -4.11471 2436.39
34.1563 -3.65132 23.4888
34.7188 -3.64885 4067.89
33.0313 -3.18855 102.413
33.5938 -3.18701 757.168
33.0313 -2.72189 160.767
33.5938 -2.72057 1824.22
34.1563 -3.18516 41.5812
34.7188 -3.183 7968.48
34.1563 -2.71899 69.7211
34.7188 -2.71715 2892.3
26.2812 -2.25132 2101.64
26.8437 -2.25285 82.3618
26.2812 -1.78552 5006.56
26.8437 -1.78674 33.139
27.4062 -2.25416 1218.89
27.9687 -2.25526 164.622
27.4062 -1.78778 708.962
27.9687 -1.78864 111.644
26.2812 -1.31973 3669.25
26.8437 -1.32062 24.4089
26.2812 -0.853928 2607.79
26.8437 -0.854509 13.36
27.4062 -1.32139 2657.31
27.9687 -1.32203 82.7547
27.4062 -0.855006 2078.61
27.9687 -0.855421 76.4988
28.5312 -2.25613 5.13018
29.0937 -2.25679 5.7194
28.5312 -1.78934 4.29679
29.0937 -1.78986 4.05534
29.6562 -2.25722 34.9102
30.2187 -2.25744 12.1115
29.6562 -1.7902 37.283
30.2187 -1.79038 5.30536
28.5312 -1.32254 3.38001
29.0937 -1.32293 3.178
28.5312 -0.855752 3.71454
29.0937 -0.856001 2.88399
29.6562 -1.32319 38.2593
30.2187 -1.32331 4.87253
29.6562 -0.856167 36.061
30.2187 -0.856249 5.68161
26.2812 -0.388132 1824.56
26.8437 -0.388396 19.2384
26.2812 0.0776645 1868.71
26.8437 0.0777176 3.85343
27.4062 -0.388622 980.33
27.9687 -0.38881 52.1441
27.4062 0.0777632 648.035
27.9687 0.0778012 59.5569
26.2812 0.543461 1975.16
26.8437 0.543831 10.4421
26.2812 1.00926 1707.62
26.8437 1.00994 13.1079
27.4062 0.544148 753.895
27.9687 0.544412 57.2133
27.4062 1.01053 1126.64
27.9687 1.01102 63.3687
28.5312 -0.38896 3.17535
29.0937 -0.389073 2.25258
28.5312 0.0778317 3.01466
29.0937 0.0778547 1.65318
29.6562 -0.389148 37.2866
30.2187 -0.389186 7.99884
29.6562 0.0778701 42.9049
30.2187 0.077878 10.718
28.5312 0.544624 2.61805
29.0937 0.544783 1.99079
28.5312 1.01142 3.12922
29.0937 1.01171 2.22129
29.6562 0.544889 42.138
30.2187 0.544942 10.9134
29.6562 1.01191 39.3199
30.2187 1.01201 7.69045
30.7813 -2.25744 8.4505
31.3438 -2.25722 30.0365
30.7813 -1.79038 8.95891
31.3438 -1.7902 32.4691
31.9063 -2.25679 5.94391
32.4688 -2.25613 6.61572
31.9063 -1.78986 4.06988
32.4688 -1.78934 3.61762
30.7813 -1.32331 7.73499
31.3438 -1.32319 33.7745
30.7813 -0.856249 8.01754
31.3438 -0.856167 38.9172
31.9063 -1.32293 3.08697
32.4688 -1.32254 3.8495
31.9063 -0.856001 2.68431
32.4688 -0.855752 3.10465
33.0313 -2.25526 148.531
33.5938 -2.25416 1010.48
33.0313 -1.78864 97.2731
33.5938 -1.78778 535.7
34.1563 -2.25285 55.1325
34.7188 -2.25132 2159.47
34.1563 -1.78674 40.753
34.7188 -1.78552 6828.02
33.0313 -1.32203 99.5407
33.5938 -1.32139 1852.45
33.0313 -0.855421 68.9274
33.5938 -0.855006 2528.62
34.1563 -1.32062 16.4411
34.7188 -1.31973 3406.11
34.1563 -0.854509 14.322
34.7188 -0.853928 2194.1
30.7813 -0.389186 8.18467
31.3438 -0.389148 39.5728
30.7813 0.077878 11.3711
31.3438 0.0778701 45.3862
31.9063 -0.389073 2.0539
32.4688 -0.38896 2.90406
31.9063 0.0778547 1.48807
32.4688 0.0778317 2.78294
30.7813 0.544942 10.9173
31.3438 0.544889 44.7686
30.7813 1.01201 7.64272
31.3438 1.01191 40.7178
31.9063 0.544783 1.7941
32.4688 0.544624 3.07626
31.9063 1.01171 2.46098
32.4688 1.01142 3.36033
33.0313 -0.38881 59.9118
33.5938 -0.388622 947.082
33.0313 0.0778012 50.731
33.5938 0.0777632 582.432
34.1563 -0.388396 20.4695
34.7188 -0.388132 2014.47
34.1563 0.0777176 8.0891
34.7188 0.0776645 1696.16
33.0313 0.544412 47.6979
33.5938 0.544148 640.896
33.0313 1.01102 48.9038
33.5938 1.01053 1430.41
34.1563 0.543831 14.8624
34.7188 0.543461 1550.93
34.1563 1.00994 17.7871
34.7188 1.00926 1950.97
26.2812 1.47505 1719.63
26.8437 1.47606 16.9064
26.2812 1.94085 1888.83
26.8437 1.94217 9.02126
27.4062 1.47692 1709.84
27.9687 1.47763 59.6245
27.4062 1.9433 708.34
27.9687 1.94424 56.9653
26.2812 2.40665 1856.43
26.8437 2.40828 6.25452
26.2812 2.87245 1718.16
26.8437 2.8744 15.7194
27.4062 2.40968 647.003
27.9687 2.41085 45.5778
27.4062 2.87607 740.482
27.9687 2.87746 55.3364
28.5312 1.47821 3.22889
29.0937 1.47864 2.22825
28.5312 1.94499 3.30353
29.0937 1.94556 1.65386
29.6562 1.47892 38.3982
30.2187 1.47907 7.84274
29.6562 1.94594 43.8965
30.2187 1.94612 12.2012
28.5312 2.41178 3.23518
29.0937 2.41248 1.07114
28.5312 2.87857 3.39564
29.0937 2.87941 1.45068
29.6562 2.41295 51.15
30.2187 2.41318 12.9588
29.6562 2.87996 50.8954
30.2187 2.88024 7.50731
26.2812 3.33825 2349.42
26.8437 3.34051 9.26025
26.2812 3.80405 3486.68
26.8437 3.80663 18.3438
27.4062 3.34245 1866.43
27.9687 3.34407 50.7184
27.4062 3.80884 6050.93
27.9687 3.81068 78.342
26.2812 4.26985 5645.86
26.8437 4.27274 51.288
26.2812 4.73566 1859.6
26.8437 4.73886 45.3505
27.4062 4.27522 1674.68
27.9687 4.27729 32.3076
27.4062 4.74161 1708.7
27.9687 4.7439 332.938
28.5312 3.34536 4.27988
29.0937 3.34633 0.960537
28.5312 3.81215 3.87174
29.0937 3.81326 1.19248
29.6562 3.34698 49.6618
30.2187 3.3473 7.09692
29.6562 3.81399 59.7216
30.2187 3.81436 8.64068
28.5312 4.27894 7.07067
29.0937 4.28018 0.62497
28.5312 4.74574 1.93028
29.0937 4.74711 19.8118
29.6562 4.28101 73.2745
30.2187 4.28142 4.32632
29.6562 4.74803 3.01026
30.2187 4.74849 44.2116
30.7813 1.47907 10.5109
31.3438 1.47892 41.2035
30.7813 1.94612 11.1487
31.3438 1.94594 46.8715
31.9063 1.47864 2.21465
32.4688 1.47821 3.18629
31.9063 1.94556 1.54271
32.4688 1.94499 2.64294
30.7813 2.41318 13.4486
31.3438 2.41295 42.8889
30.7813 2.88024 11.8642
31.3438 2.87996 42.107
31.9063 2.41248 1.0793
32.4688 2.41178 2.98246
31.9063 2.87941 1.53934
32.4688 2.87857 3.14879
33.0313 1.47763 61.0513
33.5938 1.47692 809.454
33.0313 1.94424 43.3183
33.5938 1.9433 588.24
34.1563 1.47606 22.5799
34.7188 1.47505 2018.79
34.1563 1.94217 9.25843
34.7188 1.94085 1542.08
33.0313 2.41085 48.2812
33.5938 2.40968 800.242
33.0313 2.87746 48.5805
33.5938 2.87607 822.519
34.1563 2.40828 8.76002
34.7188 2.40665 1661.24
34.1563 2.8744 0.823435
34.7188 2.87245 1740.41
30.7813 3.3473 11.1436
31.3438 3.34698 39.8022
30.7813 3.81436 15.9367
31.3438 3.81399 48.3816
31.9063 3.34633 0.908889
32.4688 3.34536 3.91401
31.9063 3.81326 1.44311
32.4688 3.81215 2.92845
30.7813 4.28142 1.12703
31.3438 4.28101 41.1082
30.7813 4.74849 34.802
31.3438 4.74803 3.77541
31.9063 4.28018 1.25475
32.4688 4.27894 8.25429
31.9063 4.74711 19.7494
32.4688 4.74574 1.51888
33.0313 3.34407 49.0946
33.5938 3.34245 1948.52
33.0313 3.81068 69.0245
33.5938 3.80884 2127.36
34.1563 3.34051 31.6449
34.7188 3.33825 2357.35
34.1563 3.80663 15.776
34.7188 3.80405 4131.18
33.0313 4.27729 16.9375
33.5938 4.27522 918.256
33.0313 4.7439 371.647
33.5938 4.74161 172.445
34.1563 4.27274 63.5392
34.7188 4.26985 4060.82
34.1563 4.73886 255.601
34.7188 4.73566 1970.59
