26.5624 -9.47545 123.419
27.6874 -9.4863 53.2014
26.5625 -8.54338 109.139
27.6874 -8.55318 21.5424
28.8124 -9.49352 66.0978
29.9375 -9.49714 34.9164
28.8124 -8.55972 26.9386
29.9375 -8.56298 9.3061
26.5625 -7.61132 96.657
27.6874 -7.62008 12.8622
26.5625 -6.67927 93.2651
27.6875 -6.68698 11.0524
28.8124 -7.62592 14.1493
29.9375 -7.62883 0.377987
28.8125 -6.69212 11.3989
29.9375 -6.69469 1.01813
31.0625 -9.49714 82.6881
32.1876 -9.49352 88.0788
31.0625 -8.56298 35.5815
32.1876 -8.55972 39.894
33.3126 -9.4863 63.4308
34.4376 -9.47545 143.949
33.3126 -8.55318 20.4058
34.4375 -8.54338 103.338
31.0625 -7.62883 14.002
32.1876 -7.62592 18.6861
31.0625 -6.69469 3.16496
32.1875 -6.69212 10.7
33.3126 -7.62008 10.02
34.4375 -7.61132 96.4328
33.3125 -6.68698 6.83398
34.4375 -6.67927 97.2769
26.5625 -5.74722 93.3061
27.6875 -5.75388 10.1873
26.5625 -4.81518 92.2288
27.6875 -4.82076 8.78297
28.8125 -5.75831 10.1357
29.9375 -5.76053 1.90957
28.8125 -4.82448 8.74904
29.9375 -4.82634 3.08841
26.5625 -3.88314 94.4475
27.6875 -3.88765 7.16311
26.5625 -2.95111 98.1816
27.6875 -2.95454 5.68014
28.8125 -3.89065 7.66149
29.9375 -3.89215 4.53278
28.8125 -2.95683 6.21345
29.9375 -2.95797 4.39725
31.0625 -5.76053 1.55843
32.1875 -5.75831 7.59301
31.0625 -4.82634 0.122272
32.1875 -4.82448 5.71862
33.3125 -5.75388 5.62282
34.4375 -5.74722 96.0529
33.3125 -4.82076 4.46027
34.4375 -4.81518 96.2478
31.0625 -3.89215 0.721029
32.1875 -3.89065 4.67193
31.0625 -2.95797 0.838056
32.1875 -2.95683 3.75367
33.3125 -3.88765 3.31605
34.4375 -3.88314 97.5925
33.3125 -2.95454 2.78263
34.4375 -2.95111 100.689
26.5625 -2.01913 98.8823
27.6875 -2.02148 4.50938
26.5625 -1.08721 95.6378
27.6875 -1.08848 3.88891
28.8125 -2.02305 5.271
29.9375 -2.02384 3.9523
28.8125 -1.08932 4.68004
29.9375 -1.08974 2.03993
26.5625 -0.155288 93.0818
27.6875 -0.155469 3.90354
26.5625 0.776633 92.9598
27.6875 0.777539 3.89658
28.8125 -0.155589 3.95612
29.9375 -0.155648 0.0214278
28.8125 0.778143 4.06312
29.9375 0.778445 0.466246
31.0625 -2.02384 0.117979
32.1875 -2.02305 3.24501
31.0625 -1.08974 0.419543
32.1875 -1.08932 3.56872
33.3125 -2.02148 2.44716
34.4375 -2.01913 98.997
33.3125 -1.08848 2.90543
34.4375 -1.08721 95.3083
31.0625 -0.155648 0.0292122
32.1875 -0.155589 3.60082
31.0625 0.778445 0.837858
32.1875 0.778143 4.60068
33.3125 -0.155469 3.65126
34.4375 -0.155288 92.9496
33.3125 0.777539 4.24971
34.4375 0.776633 92.7826
26.5625 1.70855 92.9088
27.6875 1.71054 3.62658
26.5625 2.64048 94.9664
27.6875 2.64355 5.157
28.8125 1.71187 4.39358
29.9375 1.71253 1.17912
28.8125 2.64559 7.85248
29.9375 2.64661 0.620753
26.5625 3.5724 107.832
27.6875 3.57655 14.8865
26.5625 4.50433 133.099
27.6875 4.50956 53.3636
28.8125 3.57932 22.5595
29.9375 3.5807 11.9235
28.8125 4.51305 66.7807
29.9375 4.51479 46.396
31.0625 1.71253 2.76984
32.1875 1.71187 6.04439
31.0625 2.64661 8.21882
32.1875 2.64559 11.1718
33.3125 1.71054 4.46607
34.4375 1.70855 92.835
33.3125 2.64355 6.33416
34.4375 2.64048 93.3446
31.0625 3.5807 24.9422
32.1875 3.57932 28.6189
31.0625 4.51479 68.1925
32.1875 4.51305 76.0396
33.3125 3.57655 15.8448
34.4375 3.5724 102.247
33.3125 4.50956 58.3425
34.4375 4.50433 139.716
